# .PCD v0.7 - Point Cloud Data file format
VERSION 0.7
FIELDS x y z normal_x normal_y normal_z curvature
SIZE 4 4 4 4 4 4 4
TYPE F F F F F F F
COUNT 1 1 1 1 1 1 1
WIDTH 594
HEIGHT 1
VIEWPOINT 0 0 0 1 0 0 0
POINTS 594
DATA ascii
-0.19266377 -0.2639015 1.7947521 -0.029842749 -0.89404857 0.44762427 0.0067258626
-0.20865719 -0.2614029 1.7978162 -0.14278251 -0.89708239 0.41920906 0.0058124801
-0.2215376 -0.26265359 1.8010564 -0.29518822 -0.85605878 0.42474842 0.0052818144
-0.23190925 -0.26473764 1.805186 -0.17153552 -0.85938919 0.48207936 0.023673881
-0.25533739 -0.25994572 1.8052146 0.49664214 -0.75155324 0.4345547 0.028176414
-0.26365179 -0.25459722 1.7989336 0.61850595 -0.66272777 0.42290083 0.0052984077
-0.3329789 -0.24578303 1.7993115 -0.048059162 -0.91240984 0.40792006 0.018065784
-0.3397058 -0.24459147 1.8000073 0.087961204 -0.92092031 0.38802427 0.017161626
-0.58749753 -0.22379181 1.8310156 0.56275332 -0.25097093 -0.87336689 0.056699928
-0.59378803 -0.23053743 1.8337612 -0.58752686 0.15684666 0.8020494 0.058912128
-0.60415918 -0.22454405 1.8215654 0.38873515 -0.55658025 -0.73464626 0.024823179
0.35425386 -0.31131202 1.7337387 0.47491452 -0.64388472 0.60244685 0.017478591
0.34126994 -0.30596483 1.7341292 0.2073155 -0.69823289 0.68643743 0.0064809737
0.32664248 -0.3036052 1.7341369 0.1049669 -0.66683131 0.73879749 0.012906119
0.31240469 -0.30179799 1.7353691 0.15578842 -0.64971286 0.7440784 0.0048587332
0.30102539 -0.29824793 1.736545 0.16595572 -0.58213067 0.79605126 0.0052235615
0.25211459 -0.29579902 1.7403146 -0.15115067 -0.53388768 0.83323181 0.0066752871
0.23858081 -0.2969462 1.7421421 -0.1182498 -0.60989827 0.78587544 0.0064032841
0.22400646 -0.29843175 1.7438558 -0.028085537 -0.65215248 0.75872588 0.0089727901
0.20820922 -0.29637408 1.7455149 -0.057972249 -0.62030417 0.78236991 0.020777183
0.19390753 -0.29879263 1.7478396 -0.24592172 -0.48909551 0.83917069 0.031569589
0.18445396 -0.30270267 1.7455047 -0.36916247 -0.48830944 0.79188424 0.029104998
0.11715711 -0.28621221 1.7556942 0.64653361 -0.74361694 0.18415524 0.038743563
0.10951141 -0.28619236 1.7499597 0.50367773 -0.87319511 0.086362883 0.030181535
-0.076587953 -0.27271613 1.7688727 -0.5636161 -0.49515393 0.66119003 0.0079226764
-0.088821396 -0.27971745 1.7732543 -0.43534887 -0.47790703 0.76385736 0.019051675
-0.26831761 -0.25945011 1.7863971 0.60117036 -0.70476186 0.37743977 0.012966648
-0.27908635 -0.25382417 1.7815869 0.36218151 -0.80557644 0.46983367 0.02297798
-0.30197111 -0.25169185 1.7832012 -0.16810215 -0.84463304 0.50903445 0.0096034063
-0.31346944 -0.25167343 1.7877934 -0.28171468 -0.83754891 0.46898189 0.0038088227
-0.32796925 -0.25455087 1.7920537 -0.21702732 -0.89286977 0.39466706 0.012009704
-0.34387803 -0.25437379 1.7933801 0.049103525 -0.95898294 0.28329602 0.023170192
-0.35595632 -0.25050133 1.7914972 0.23557709 -0.94835389 0.21807289 0.014621278
-0.36820251 -0.24760008 1.7877746 0.53473526 -0.84804243 0.011525467 0.043535057
-0.61491805 -0.23044622 1.8215704 0.38452828 -0.51439518 -0.76678389 0.025705928
-0.62197906 -0.23409073 1.8218386 0.4408291 -0.52524716 -0.72982103 0.018336076
0.350604 -0.31836644 1.7209401 0.39151967 -0.71960759 0.57408398 0.01528076
0.33961174 -0.31593576 1.7195928 0.21050985 -0.75399876 0.62269908 0.0062101716
0.32572386 -0.31392148 1.7202172 0.10171488 -0.77362788 0.62628686 0.0069698589
0.31131804 -0.31036311 1.720903 0.14762503 -0.77804869 0.61131775 0.012039351
0.29718551 -0.3061628 1.7206402 0.19678502 -0.76548082 0.61266267 0.014656843
0.28218725 -0.30395401 1.7173052 0.10020676 -0.79861671 0.59366637 0.01769967
0.26239184 -0.30277842 1.7221193 -0.21207771 -0.74389327 0.63439745 0.012975323
0.25097415 -0.30457366 1.7259979 -0.26660785 -0.74331182 0.61690176 0.010613472
0.23752932 -0.30690879 1.7281131 -0.17684546 -0.7831158 0.59644789 0.011825403
0.22191201 -0.30612919 1.7319019 -0.0042995792 -0.76852655 0.64239335 0.017659113
0.20493211 -0.30370697 1.7312334 -0.012006252 -0.68950409 0.72640228 0.028207799
0.19098823 -0.30214322 1.7315115 -0.22362821 -0.57572508 0.7954253 0.049245633
0.17953166 -0.30774197 1.736167 -0.38124835 -0.56370598 0.73328966 0.026441984
0.094353616 -0.29733866 1.7431206 0.15280396 -1.0308384 0.012436127 0.031163642
-0.068951346 -0.2757439 1.7508968 0.67149931 0.14080779 -0.88989311 0.10329314
-0.07792148 -0.27839345 1.7544866 -0.36599949 0.19440234 0.97490281 0.079689346
-0.09147764 -0.28320229 1.7569021 -0.33436111 0.10306249 0.93787438 0.057824783
-0.10301961 -0.28578931 1.7530369 -0.22326207 0.27312857 0.93718302 0.059545185
-0.2751416 -0.26620692 1.7760026 0.4688319 -0.82310408 0.32537773 0.016544187
-0.28583285 -0.26292714 1.7725192 0.18992174 -0.90157443 0.38984764 0.021863092
-0.29924801 -0.26176703 1.7743635 -0.14442924 -0.89785624 0.41606867 0.0068616872
-0.31305304 -0.26216114 1.7791167 -0.32907462 -0.8560999 0.39961576 0.0028591619
-0.32317847 -0.26286829 1.7838311 -0.32961342 -0.8689642 0.36963698 0.0026672676
-0.36006728 -0.25582239 1.7884462 0.27312922 -0.95305574 0.1346696 0.012663987
-0.37401175 -0.25442758 1.7847171 0.26958832 -0.96202183 0.23585413 0.011930618
-0.38514423 -0.26333255 1.7761918 0.65934056 -0.73786789 -0.15113162 0.026244229
-0.64434272 -0.23993099 1.8076186 0.75165212 -0.37291634 -0.5538727 0.0076566096
0.31088704 -0.32026029 1.7123609 0.094823129 -0.87718451 0.47147921 0.0084919306
0.29373667 -0.31789652 1.7111573 0.13599494 -0.90404588 0.40533346 0.0051389127
0.2786226 -0.31437877 1.7093379 0.044548161 -0.91702235 0.39874959 0.0094637396
0.26544243 -0.31283358 1.7116883 -0.23142509 -0.88246781 0.41567251 0.010614713
0.25284201 -0.31495908 1.7161005 -0.31732196 -0.87161732 0.37447312 0.006147421
0.21807986 -0.3149823 1.7219318 0.042486746 -0.8875038 0.46033722 0.017866736
0.20433679 -0.31285396 1.7216043 0.0088925539 -0.86967468 0.49456421 0.02480747
-0.10716295 -0.2841759 1.7481445 0.15803814 -0.48499557 -0.86707664 0.04832479
-0.1298576 -0.27686638 1.7422944 0.35864741 -0.65260011 -0.67763919 0.039732955
-0.13416108 -0.28319871 1.7425665 0.69613433 -0.54244292 -0.65463454 0.07401932
-0.40012074 -0.26486549 1.7528266 0.75874972 -0.57769376 -0.30096871 0.012330664
-0.40052432 -0.2675887 1.7529312 0.73465341 -0.59496856 -0.3276006 0.011048329
-0.40574262 -0.26183239 1.7448181 0.60976011 -0.65503496 -0.47180825 0.013068859
-0.92225474 -0.23311217 1.7667849 -0.21863721 -0.92807728 -0.64338923 0.018788021
-0.93227458 -0.22953868 1.7652851 -0.10555351 -0.73209584 -0.6750682 0.0096621588
-0.94539511 -0.22762193 1.7676911 0.13434741 -0.5354206 -0.88815695 0.029945696
-0.92324889 -0.22935724 1.7610067 -0.28763002 -0.31554386 1.0369904 0.096626297
-0.92667776 -0.22774087 1.7629366 -0.23280917 -0.52034205 -0.83248353 0.070993572
-0.94795603 -0.2261899 1.7648034 0.35531107 -0.50568885 -0.84104067 0.13101314
-0.95938629 -0.23338589 1.7379975 -0.52679777 -0.90582329 0.376421 0.063951738
-0.9207595 -0.23838067 1.7260028 0.089195341 -1.0424696 0.19922268 0.046376843
-0.94198024 -0.23770337 1.7271168 -0.3012701 -1.0376908 0.10426704 0.021934699
-0.95276219 -0.23996179 1.7311077 -0.42707652 -0.93442583 -0.06277322 0.015776614
-0.9588514 -0.17765731 1.9771212 -0.35167909 -0.78025472 0.51811504 0.016919805
-0.96799618 -0.17426756 1.9839457 -0.25957417 -0.85484356 0.45450822 0.017040074
-0.98554993 -0.17754415 1.9868646 -0.24525884 -0.86905569 0.4324781 0.00565742
-0.81256962 -0.18750507 1.9474128 -0.076853335 -0.76320636 0.6434238 0.0052397335
-0.82207137 -0.18869929 1.9471395 -0.029800488 -0.79651123 0.60490674 0.004506649
-0.83703631 -0.18925191 1.9462206 0.029602448 -0.83982044 0.54227233 0.0047225915
-0.84835893 -0.1878061 1.9470297 0.037397113 -0.87033349 0.49163431 0.0034500728
-0.89904386 -0.18300843 1.9512379 -0.13856016 -0.8860786 0.44278061 0.0062940805
-0.91158676 -0.18340425 1.9526348 -0.18104397 -0.9147765 0.36714336 0.030713808
-0.92793858 -0.18160199 1.9571004 -0.19273947 -0.87301445 0.45161146 0.01359665
-0.9426766 -0.18099891 1.9611411 -0.25376415 -0.81647837 0.52202767 0.023659086
-0.95328635 -0.1853601 1.9634209 -0.37041274 -0.78006464 0.50443745 0.0195657
-0.73738492 -0.19871686 1.9239111 -0.15531568 -0.80479157 0.57369751 0.0078513138
-0.74683434 -0.19672641 1.9276849 -0.13524467 -0.8410356 0.52415913 0.0080992626
-0.76520205 -0.19899416 1.9276631 -0.20285703 -0.86829412 0.45290008 0.0059932512
-0.77984416 -0.19797203 1.9321948 -0.18036969 -0.8727985 0.45396268 0.0041749608
-0.79481304 -0.19780444 1.9346056 -0.12582655 -0.87345582 0.47109175 0.0047433935
-0.81005287 -0.19779916 1.936506 -0.098059431 -0.86804008 0.48781532 0.0051570311
-0.82434791 -0.19738634 1.9380772 -0.048787937 -0.8653273 0.49885452 0.0045755436
-0.83942115 -0.19702834 1.9391152 -0.0253413 -0.87910247 0.47622865 0.004025762
-0.85460466 -0.19579999 1.9404489 -0.019471886 -0.9045552 0.42591244 0.002285195
-0.86878687 -0.19366857 1.9423274 -0.05121221 -0.92352563 0.38026011 0.0018057342
-0.88411522 -0.19361247 1.9433078 -0.095969617 -0.93496513 0.34193927 0.00068553648
-0.89881092 -0.19368529 1.9449713 -0.21170793 -0.94523913 0.25028813 0.012286877
-0.91282803 -0.19124304 1.9485725 -0.22221187 -0.94887573 0.22697997 0.012994347
-0.92734694 -0.19200869 1.9512891 -0.19808565 -0.96611196 0.16874483 0.010905701
-0.94497663 -0.19157606 1.9548415 -0.19375858 -0.93839401 0.29174414 0.047361951
-0.95722139 -0.19296081 1.9575142 -0.27121669 -0.86699915 0.41947141 0.056324348
-0.63483804 -0.21243782 1.9028984 -0.369232 -0.80994534 0.457129 0.0054319198
-0.64776278 -0.21470889 1.9058663 -0.22516941 -0.88850176 0.40017903 0.0094150975
-0.66315806 -0.21524541 1.9079229 -0.071588248 -0.94543874 0.31851402 0.0051220381
-0.67803764 -0.2129745 1.9093277 0.044858523 -0.94055718 0.33972245 0.028529787
-0.69117904 -0.20997161 1.9098625 0.031604595 -0.93678677 0.35008743 0.032747954
-0.70614034 -0.20728661 1.9101832 -0.073641643 -0.91147143 0.40534911 0.029899329
-0.72104019 -0.20707205 1.9110972 -0.14565136 -0.87395567 0.46408585 0.01534321
-0.73609942 -0.20763667 1.9137775 -0.17772631 -0.84241706 0.50882566 0.0084111802
-0.75098062 -0.20747478 1.9184146 -0.2041605 -0.85414922 0.47830984 0.0073580244
-0.76574653 -0.20973147 1.9212586 -0.23524892 -0.87959111 0.41365063 0.004454603
-0.78044993 -0.20994258 1.9251586 -0.19065155 -0.91687137 0.35092941 0.0022114189
-0.79688567 -0.20801497 1.9287485 -0.11605407 -0.93323058 0.34003481 0.00069111073
-0.81142139 -0.20760758 1.9299891 -0.091516368 -0.92589986 0.36704659 0.0080696605
-0.82562178 -0.20677806 1.9313016 -0.048698787 -0.92359817 0.38202631 0.0050109224
-0.83966857 -0.20573699 1.9326195 -0.051247053 -0.91849864 0.39255467 0.0026139684
-0.84902555 -0.20510621 1.9336066 -0.058044422 -0.91931808 0.3892917 0.0021446974
-0.86356562 -0.20478879 1.9350264 -0.084923409 -0.93007886 0.35775012 0.0016292369
0.13587506 -0.27519271 1.823645 0.19955339 -0.98608011 0.36279443 0.031917159
-0.62249339 -0.21876922 1.8873311 -0.47898179 -0.73944229 0.47321495 0.0029406403
-0.63368213 -0.22106506 1.8937107 -0.40659043 -0.76380086 0.50131238 0.0029364668
-0.64745241 -0.22494824 1.8981874 -0.27573439 -0.81320214 0.51279944 0.0062049064
-0.66280955 -0.22312811 1.9034566 -0.051230431 -0.88476181 0.46449137 0.016809653
-0.67846167 -0.22016011 1.904374 0.060132015 -0.88960773 0.45322946 0.025304062
-0.69382328 -0.21888867 1.9018154 0.068174854 -0.86341339 0.50240058 0.026680615
-0.70848483 -0.21692975 1.9039955 -0.06804692 -0.8736884 0.48183155 0.022843942
-0.72337705 -0.21848854 1.9041076 -0.11718427 -0.87477571 0.47022 0.011209964
-0.73760331 -0.21672925 1.9070038 -0.18289015 -0.85172296 0.49212623 0.0055027083
-0.7491467 -0.21595161 1.910912 -0.24239941 -0.83604079 0.49235782 0.0044378461
0.40031898 -0.31611419 1.7847788 0.903669 -0.41771188 0.094337292 0.013464915
0.16074727 -0.29117125 1.8015386 -0.40648362 -0.74648118 0.53355759 0.03270895
0.154028 -0.2887964 1.8093911 -0.39412028 -0.78278726 0.48870379 0.039756343
0.14003672 -0.28772101 1.8131983 0.143904 -0.84538859 0.52264214 0.092271678
0.1298214 -0.28630528 1.8115615 0.71095067 -0.56586301 0.54772264 0.12566455
-0.61320078 -0.22926389 1.8716829 -0.53559107 -0.66475648 0.52099621 0.0048572002
-0.62032819 -0.22751173 1.8788238 -0.48599702 -0.72950459 0.48174077 0.0030734648
-0.63476419 -0.23071796 1.8846724 -0.38712573 -0.7519235 0.53371793 0.0027267733
-0.6823011 -0.23223536 1.891125 0.13601609 -0.79539037 0.59097391 0.020620763
-0.69480282 -0.22832367 1.8911101 0.051108815 -0.82267207 0.56740826 0.028770788
-0.70489305 -0.22546841 1.8946843 -0.064692609 -0.827829 0.55768597 0.030530265
0.39941895 -0.31325716 1.7762583 0.86461365 -0.44698533 0.29076874 0.029687259
0.17741704 -0.28993753 1.7878458 -0.49397755 -0.53421825 0.68754852 0.036020029
0.16712868 -0.29407832 1.7939601 -0.46685484 -0.60520387 0.64644998 0.048958879
0.15283498 -0.29956695 1.7967509 -0.18630376 -0.56278718 0.80972242 0.058172062
0.14225064 -0.30019176 1.7984847 0.21885985 -0.54118037 0.81618071 0.10414959
0.13083093 -0.29449433 1.8009639 0.6507467 -0.45898443 0.67769372 0.13223025
-0.60718066 -0.23166713 1.8615334 -0.59441298 -0.56296188 0.57483131 0.0042012269
-0.61729562 -0.23901606 1.8638451 -0.53394824 -0.58830512 0.60757333 0.0078655779
0.3883695 -0.31763509 1.7612655 0.66409618 -0.71996641 0.2222569 0.012609302
0.37847292 -0.31478274 1.7563908 0.5549137 -0.75430042 0.35205001 0.0082764374
0.17080405 -0.29840791 1.7739601 -0.39330727 -0.43146861 0.81271005 0.047156479
0.16472772 -0.30095217 1.7816252 -0.35459992 -0.41069239 0.84142625 0.055077955
0.15085304 -0.30229133 1.7827848 -0.012633696 -0.34226212 0.94437331 0.043316562
0.13817017 -0.2963919 1.7832695 0.57096368 -0.24810404 0.78460538 0.073772646
-0.23870857 -0.26303056 1.8099145 -0.10565272 -0.88266242 0.50213861 0.046226487
-0.24587806 -0.26292303 1.8091751 0.23531233 -0.83974272 0.498597 0.051015645
-0.59820962 -0.23513481 1.8425262 -0.6355626 -0.14054509 0.76465106 0.065269388
-0.6078434 -0.24081199 1.8480426 -0.5758726 -0.25769904 0.77756053 0.061154332
0.38392445 -0.32465252 1.7542233 0.62351209 -0.72884798 0.28333858 0.0069163949
0.37302449 -0.32000101 1.7489958 0.58661765 -0.72021294 0.37674585 0.0086886911
0.17144255 -0.30345592 1.7612759 -0.36499739 -0.46079996 0.80937171 0.045762565
0.16360873 -0.30426812 1.7678708 -0.25913739 -0.47151437 0.84607333 0.053719427
0.14908379 -0.3039642 1.7689763 0.086773239 -0.50145614 0.87626255 0.046736803
0.13496791 -0.29838392 1.7687404 0.52488977 -0.54063255 0.67348617 0.066370197
-0.1048591 -0.27908024 1.7857313 -0.22791664 -0.73693037 0.63895816 0.022393294
-0.11787376 -0.27807769 1.7878848 -0.072989352 -0.81061226 0.58391154 0.025501452
-0.13279508 -0.27490684 1.7897323 -0.021574371 -0.81230718 0.58284593 0.013756664
-0.14945081 -0.27512676 1.7925761 -0.058215152 -0.79354465 0.61107785 0.022024859
-0.16203822 -0.27250245 1.7928102 0.080542892 -0.83707857 0.55000365 0.020503534
-0.21032976 -0.2700493 1.7929531 -0.15120701 -0.92984551 0.33574259 0.0051936158
-0.22543174 -0.27130404 1.7971357 -0.27523422 -0.88870895 0.3671692 0.009745663
-0.23903488 -0.2720246 1.8019613 0.0080621177 -0.91537976 0.40346614 0.047721904
-0.25148314 -0.26843905 1.8016825 0.41790381 -0.81977272 0.39823532 0.043781109
-0.59972173 -0.23531221 1.8344319 -0.56566459 0.19983111 0.83087945 0.080459796
-0.60859507 -0.24208568 1.8361406 -0.51356149 0.18761995 0.85027874 0.064867653
0.36884299 -0.32635868 1.7377703 0.70542836 -0.58717555 0.39725605 0.0072356681
0.36079207 -0.3182109 1.7325361 0.60423714 -0.61127418 0.51196975 0.011903955
0.18739459 -0.3017225 1.7485298 -0.31266901 -0.47577533 0.82284075 0.029492484
0.17583199 -0.30533949 1.7516706 -0.40319982 -0.45654002 0.79327404 0.042038903
0.16085181 -0.30829242 1.7539217 -0.24723877 -0.55410749 0.80539447 0.052160043
0.14773713 -0.30926839 1.7559425 -0.065908015 -0.69587725 0.72269279 0.040106472
0.13411452 -0.30676898 1.7560042 0.34429589 -0.77578306 0.53154886 0.065968484
-0.095918812 -0.28358018 1.7746176 -0.36088374 -0.52567536 0.77192175 0.026472278
-0.10463753 -0.28561464 1.7765083 -0.30652153 -0.5880605 0.7676807 0.037244678
-0.11909604 -0.28848001 1.778617 -0.10165755 -0.63470101 0.76808876 0.043991301
-0.13528778 -0.28314778 1.7815318 -0.032572947 -0.79126596 0.61149061 0.01916497
-0.15086043 -0.28290945 1.7822284 -0.087682381 -0.83272332 0.54699576 0.026804466
-0.16544248 -0.28466335 1.7832223 -0.10315884 -0.90222913 0.42016104 0.028326482
-0.17825687 -0.28196424 1.7863232 -0.065122247 -0.95947224 0.28388253 0.018341994
-0.19314948 -0.28001732 1.7866398 -0.067124844 -0.97233605 0.22376397 0.0034778798
-0.2088854 -0.28012466 1.7877994 -0.15308188 -0.9572565 0.24586566 0.0032066535
-0.22361808 -0.2819494 1.7904702 -0.28832641 -0.93096703 0.22681367 0.0058291424
-0.245111 -0.28118351 1.7957072 0.16317241 -0.95444798 0.29006308 0.06005808
-0.25563702 -0.27592292 1.7920258 0.55944979 -0.78523737 0.26589903 0.023709884
-0.2628749 -0.27046481 1.78704 0.63941145 -0.71920025 0.27316603 0.0089821536
-0.34408623 -0.26227683 1.7900448 -0.018400364 -0.97335398 0.22979532 0.028254673
-0.63819253 -0.2423227 1.8174952 0.62955946 -0.41013861 -0.66137558 0.009020376
0.36568809 -0.33272889 1.7241808 0.74553728 -0.53192294 0.40180835 0.0040350514
0.35885125 -0.32430977 1.7209951 0.5775888 -0.6364311 0.5131821 0.020010434
0.2172959 -0.3095552 1.7271168 0.040235635 -0.80863518 0.58761096 0.013592903
0.16375436 -0.3141515 1.7418405 -0.36712897 -0.61072844 0.70283335 0.034231909
0.14827827 -0.31693292 1.7472664 -0.20581794 -0.73956937 0.64470536 0.013185674
0.1134164 -0.31644729 1.7417665 0.5067212 -0.60706216 0.67380226 0.0054789069
0.1028799 -0.30681282 1.74448 0.76286507 -0.7539767 0.75635219 0.05060605
0.094569884 -0.30202398 1.7439624 -0.80460787 -1.1405815 -0.21491969 0.044871677
-0.095792487 -0.28531671 1.7631449 -0.3364867 -0.22248726 0.92578483 0.023732506
-0.10602111 -0.28825891 1.7632892 -0.27507284 -0.14924558 0.97862917 0.033707976
-0.11972086 -0.29237488 1.7645952 -0.16765127 -0.18107109 0.9754914 0.077412859
-0.13587643 -0.2927258 1.7677904 -0.16764478 -0.47885573 0.86994302 0.079441376
-0.15692088 -0.29204869 1.7754642 -0.2229066 -0.81521708 0.53603166 0.034662392
-0.16169308 -0.29305989 1.7762641 -0.27670246 -0.85951978 0.43117267 0.031454533
-0.26090705 -0.28349674 1.7835598 0.67526227 -0.71662509 0.1779086 0.0097316159
-0.26844215 -0.27822804 1.7771693 0.62727284 -0.75173163 0.20414226 0.0046360488
-0.30644211 -0.27166525 1.7702879 -0.26237956 -0.90548205 0.33442754 0.0039819228
-0.31800494 -0.27110747 1.7760885 -0.36978239 -0.86456943 0.34040672 0.0014064738
-0.33050299 -0.27200827 1.7818464 -0.33672047 -0.89033002 0.30653498 0.0029576821
-0.34396809 -0.27237797 1.7867963 -0.12539299 -0.97420019 0.19425535 0.016692834
-0.35748395 -0.27417955 1.7869657 0.094186582 -0.98894566 0.12053637 0.017696287
-0.37347162 -0.26842669 1.7826092 0.37851277 -0.92547244 0.017071083 0.008163821
-0.64366555 -0.24750398 1.8154444 0.52970225 -0.50668359 -0.70679307 0.0090926215
-0.65087318 -0.2482397 1.8053508 0.7776795 -0.30506951 -0.5650335 0.012672921
0.36559093 -0.33830285 1.715885 0.73171049 -0.57608104 0.3804521 0.014360211
0.35486588 -0.33392441 1.7080451 0.45217106 -0.77841443 0.44029954 0.0095477346
0.33881053 -0.33012521 1.7057953 0.12855718 -0.88543034 0.44690791 0.014392536
0.32327738 -0.32794833 1.7072734 0.0070714606 -0.91002011 0.41527396 0.0067815678
0.30701545 -0.32853174 1.7065951 0.073541291 -0.93888915 0.33979371 0.00513505
0.29457113 -0.32553598 1.7071894 0.13897647 -0.93680078 0.32245958 0.005107705
0.28245524 -0.32275438 1.7062939 0.065217808 -0.94867212 0.30980012 0.0044342717
0.2618722 -0.32190704 1.7080379 -0.28376997 -0.90991133 0.30295375 0.0059989872
0.2494951 -0.32410598 1.7137374 -0.33490443 -0.89536983 0.29393539 0.0070662326
0.23287907 -0.32273239 1.7179685 -0.10285261 -0.93143117 0.34963793 0.011629326
0.21922667 -0.32090735 1.7181511 0.042356405 -0.92427504 0.37980649 0.0075652427
0.20451924 -0.32001039 1.7171714 -0.019872027 -0.93121803 0.36415893 0.012129736
0.18965122 -0.31976864 1.7192663 -0.21350019 -0.92629564 0.31153572 0.0097328583
0.17455517 -0.31902978 1.7237083 -0.41702992 -0.8557418 0.32717767 0.02181557
0.16471358 -0.32548359 1.7266659 -0.39658007 -0.86632138 0.30822021 0.020653684
0.10302396 -0.31060338 1.7364804 0.073290125 -0.75631094 1.2742547 0.026185306
-0.11138661 -0.28735644 1.7535384 -0.15587854 0.29988819 0.95204413 0.044085167
-0.12140298 -0.28890368 1.753166 -0.19450721 0.36960933 0.9264847 0.051169358
-0.13772549 -0.29468897 1.7536464 -0.54748577 0.14182875 0.854123 0.10431313
-0.2739363 -0.28341213 1.768031 0.53790134 -0.81375676 0.2264871 0.02081855
-0.286836 -0.28161803 1.7625588 0.18647335 -0.94306064 0.27680916 0.011131507
-0.30289477 -0.28311318 1.7628983 -0.18470007 -0.93900561 0.29202044 0.009686566
-0.31721154 -0.2804347 1.7701244 -0.38850003 -0.87170309 0.29903936 0.00081671862
-0.32739091 -0.28135663 1.7750322 -0.38190863 -0.87985784 0.28285682 0.00068512245
-0.37997931 -0.27436814 1.7785506 0.43585423 -0.90126204 0.0072994097 0.0087798713
-0.38927922 -0.2761724 1.7717221 0.65303999 -0.76391327 -0.079123862 0.019317878
-0.65212387 -0.24508479 1.7956265 0.84681463 -0.1166012 -0.52800381 0.009512051
-0.65141511 -0.24611203 1.8003492 0.81749398 -0.20267655 -0.53954166 0.009512051
0.3445558 -0.34070918 1.6995232 0.17421298 -0.91910213 0.35594565 0.020601394
0.33535299 -0.33963686 1.6998554 0.014818028 -0.94160557 0.34552965 0.011084023
0.32149422 -0.33962929 1.701602 -0.033326153 -0.96541333 0.25875005 0.0052229729
0.31177154 -0.33722705 1.702583 0.01693516 -0.96599376 0.25922242 0.0053726975
0.29029697 -0.33532971 1.7014829 0.091152184 -0.95771164 0.27307895 0.0031154442
0.27823931 -0.33146808 1.7015924 -0.018555256 -0.96618259 0.25749692 0.0098782871
0.26327717 -0.33165681 1.7036691 -0.26472673 -0.93647105 0.23037419 0.0068174754
0.25143692 -0.33495393 1.707737 -0.31380096 -0.92434704 0.21709913 0.0044016824
-0.14703302 -0.30228072 1.7416619 0.973728 -0.041476674 -0.415479 0.024457
-0.65999365 -0.25649762 1.7796904 1.926282 4.5763412 1.2879385 0.00046822274
-0.41494584 -0.28320771 1.7448816 0.81162715 -0.41976503 -0.42150825 0.013751596
-0.41937992 -0.28774586 1.7420981 0.84358281 -0.47189987 -0.39509398 0.014932543
-0.425708 -0.28662035 1.733173 1.0423659 -0.29829916 -0.46123478 0.05101848
-0.95858604 -0.23925203 1.7717278 0.19227828 -0.68866825 -0.7641201 0.061013155
-0.42531952 -0.29037929 1.7145591 0.93996775 0.45502609 -0.012336249 0.036171332
-0.98565823 -0.24919075 1.769467 -0.60536629 -0.024049789 0.79567772 0.094891272
-0.99009484 -0.25328985 1.7656536 0.42604303 0.4389132 -1.050899 0.07736636
-0.41891357 -0.29478925 1.705443 0.75781125 0.75270015 0.052571446 0.013258949
-0.97271532 -0.24622209 1.7469133 0.72324651 0.55674201 -0.40939865 0.062193155
-0.97548032 -0.24561423 1.7524177 0.75067031 0.49954563 -0.47220758 0.061668232
-0.99027431 -0.2549105 1.7612839 0.57609475 0.51399761 -0.74415952 0.07736636
-0.96472299 -0.18596673 1.9739016 -0.3920202 -0.76195771 0.51555562 0.0095263459
-0.97388589 -0.18712452 1.9787923 -0.28879112 -0.83746225 0.46910006 0.014137922
-0.98599297 -0.1877436 1.9808682 -0.17159685 -0.8780129 0.45095098 0.010762233
-0.99465877 -0.1896321 1.979779 -0.097469516 -0.89582151 0.44724458 0.0017686263
-0.97287428 -0.19610402 1.9698006 -0.34102482 -0.75432116 0.56151742 0.026096698
-0.98736227 -0.19723864 1.9728346 -0.17577516 -0.80835396 0.56419784 0.01603887
-0.99794263 -0.19953404 1.9729736 -0.24854958 -0.83345801 0.50230294 0.016305834
-0.91935164 -0.21144153 1.9480232 -0.26268733 -0.96392965 0.044650555 0.0041599241
-0.92934984 -0.21222822 1.9502127 -0.17723541 -0.98403889 0.020313369 0.004728443
-0.94482636 -0.20371649 1.9526606 -0.082196765 -0.99345595 0.082954563 0.016546348
-0.95918274 -0.19995889 1.9541664 -0.22251882 -0.90232682 0.37806121 0.060513727
-0.9730342 -0.20284864 1.9585583 -0.20202793 -0.78969157 0.57976764 0.043651093
-0.98499548 -0.20371747 1.9634283 -0.24595268 -0.70671183 0.66392142 0.022391802
-0.77227503 -0.21740107 1.9185442 -0.26238102 -0.885948 0.38268963 0.0041361614
-0.78290766 -0.21716382 1.9212613 -0.20098373 -0.92426795 0.32576004 0.002652393
-0.79616213 -0.21646462 1.9234718 -0.13808846 -0.95451373 0.26513308 0.0070211366
-0.81073111 -0.21649186 1.9252958 -0.077396207 -0.96595001 0.24710885 0.0063662995
-0.82605851 -0.21521054 1.9272376 -0.047192555 -0.9552592 0.29206774 0.0025098943
-0.84110641 -0.21388881 1.9280782 -0.048090663 -0.94516093 0.32318094 0.0012855752
-0.85679317 -0.21184155 1.9303336 -0.087715968 -0.93794215 0.33579007 0.00087303185
-0.87131447 -0.21054451 1.9328262 -0.11648425 -0.94090772 0.3180421 0.00073514722
-0.88489383 -0.21118516 1.9343289 -0.24695244 -0.94225436 0.22653183 0.011784429
-0.89575899 -0.20752658 1.9383413 -0.26997834 -0.94882274 0.18478416 0.0085869972
-0.96431595 -0.21168293 1.9495093 0.050906591 -0.92266268 0.38405323 0.058252204
-0.97579658 -0.21030577 1.9489515 -0.090852782 -0.79554123 0.61009663 0.065291665
-0.98762071 -0.21097 1.9511551 -0.24651128 -0.7164591 0.65498894 0.033324596
-0.65547818 -0.22914785 1.8971481 -0.16305299 -0.81074321 0.56249052 0.015991585
-0.66553694 -0.22862875 1.898266 -0.043959677 -0.83922011 0.54202241 0.016099023
-0.67953551 -0.22745562 1.8975475 0.12453102 -0.82916814 0.54503751 0.023677731
-0.69353974 -0.22505286 1.8951516 0.065596148 -0.82192427 0.56591922 0.031392086
-0.70726627 -0.22350603 1.8970408 -0.079970494 -0.83496392 0.54849172 0.028193235
-0.71661848 -0.22360975 1.8988786 -0.10497871 -0.84775341 0.52026671 0.016547374
-0.74039119 -0.22351915 1.9022572 -0.18023217 -0.84050512 0.51160353 0.0052547539
-0.75456351 -0.22258559 1.9078482 -0.27609754 -0.83271891 0.48035151 0.0015127374
-0.76828396 -0.22552438 1.9111195 -0.32748955 -0.8348453 0.44292229 0.003885668
-0.78215539 -0.22478591 1.9168797 -0.29516718 -0.89437073 0.33743203 0.013960917
-0.79944533 -0.22500055 1.9207627 -0.18350412 -0.96051198 0.21507417 0.014795551
-0.81483006 -0.22565018 1.9219271 -0.058098186 -0.98820293 0.14834079 0.0065518697
-0.8291558 -0.2246321 1.9226494 -0.020004034 -0.98340064 0.18413837 0.0076041678
-0.8426891 -0.22240436 1.9236914 -0.042816713 -0.96846181 0.24580669 0.0021235759
-0.85684073 -0.22131215 1.9249737 -0.087431766 -0.95878094 0.27042577 0.002334554
-0.87196612 -0.22196528 1.9268577 -0.14096235 -0.94603318 0.29250559 0.00029032206
0.40563074 -0.32710639 1.7976062 0.97008431 -0.19474012 0.14495641 8.6240382e-14
0.14834194 -0.29676422 1.8057947 -0.204574 -0.75444537 0.63967663 0.077746309
0.13643168 -0.29511178 1.8064122 0.43579775 -0.58189219 0.69618613 0.12412038
-0.62521958 -0.23683509 1.8732572 -0.45952553 -0.69779795 0.55009043 0.0044904198
-0.63724893 -0.23811765 1.8787466 -0.35625637 -0.74989098 0.5574702 0.0032085292
-0.6508587 -0.23791188 1.8842955 -0.22909589 -0.77787018 0.58527642 0.0039947513
-0.66533631 -0.23904185 1.8865137 -0.029806281 -0.79103673 0.61186647 0.01269373
-0.68010861 -0.23728926 1.886137 0.096983992 -0.80234039 0.58974534 0.015585174
-0.69538319 -0.23807448 1.8816475 0.0065349815 -0.84425324 0.53609902 0.026009351
-0.71373922 -0.23510955 1.8873065 -0.09087754 -0.83169693 0.54799998 0.01518155
-0.7253806 -0.23278329 1.8918614 -0.11118878 -0.82406503 0.55559701 0.0093387784
-0.73993409 -0.23339416 1.8924388 -0.15970257 -0.80588681 0.57015777 0.0039953426
-0.75399959 -0.23399527 1.8963996 -0.28303057 -0.78131068 0.55674893 0.0028006851
-0.76617897 -0.2342048 1.9021786 -0.34663147 -0.78125155 0.51958621 0.0032516706
0.15187638 -0.2991206 1.7979937 -0.15386526 -0.58099169 0.81961966 0.065965146
0.13804981 -0.30017087 1.7987816 0.39105299 -0.33549094 0.87048304 0.14677468
-0.62556356 -0.24387094 1.8649629 -0.48457646 -0.60521913 0.63169253 0.0076168552
-0.63765544 -0.24802426 1.8694814 -0.3750979 -0.6940794 0.61673135 0.0080913315
-0.65392542 -0.24918559 1.8744706 -0.18148094 -0.78014362 0.59878123 0.0063979966
-0.66865695 -0.24803561 1.8762193 -0.0094587291 -0.80506361 0.593337 0.0080427947
-0.68182087 -0.24729213 1.8760544 0.050447073 -0.83530617 0.54823267 0.014161401
-0.69665605 -0.2448402 1.8776461 -0.024810394 -0.86397707 0.50353724 0.018786255
-0.71469873 -0.24405964 1.8798555 -0.090264998 -0.82986885 0.55178422 0.011726415
-0.72739452 -0.24354963 1.8799657 -0.035036922 -0.80838168 0.58770162 0.0011315545
-0.73991263 -0.24280581 1.8821872 -0.15487134 -0.7969169 0.58418334 0.0028225987
0.15907006 -0.30268973 1.777601 -0.14584325 -0.38973621 0.90957963 0.053072713
-0.62459749 -0.24961749 1.8528206 -0.5189569 -0.43932325 0.73336792 0.0040811272
-0.63697898 -0.25533652 1.8574116 -0.43308565 -0.51645386 0.73883605 0.010629742
0.38581994 -0.33262974 1.7518252 0.65094537 -0.72184849 0.24166201 0.0086379806
0.37914661 -0.330937 1.746717 0.65424854 -0.6968888 0.30234745 0.0083312187
-0.62584347 -0.25362065 1.8393568 -0.55482066 0.022707295 0.83364207 0.056025401
-0.63784879 -0.2597591 1.8425173 -0.47810274 -0.26929796 0.85021156 0.0047898353
0.38112411 -0.34236473 1.7413409 0.70736223 -0.63009244 0.32067385 0.0072104884
0.37474018 -0.33760583 1.7365053 0.75126565 -0.57245016 0.32927907 0.0078086653
-0.13196006 -0.29053488 1.7748456 -0.081312455 -0.64626598 0.76067036 0.037229594
-0.16662262 -0.28845674 1.7806065 -0.17820415 -0.91598535 0.36999744 0.028843051
-0.18300202 -0.29095739 1.7820377 -0.11628475 -0.97421545 0.19510587 0.01957735
-0.19510511 -0.29121131 1.7820861 -0.1664575 -0.98133415 0.1063263 0.01718824
-0.22832379 -0.28953695 1.7895139 -0.26028326 -0.95739162 0.15259819 0.011294416
-0.24194109 -0.29063773 1.7927903 0.025236238 -0.9998762 0.16979547 0.044148441
-0.25264031 -0.28898335 1.7898906 0.46314427 -0.87319309 0.15591262 0.04264034
-0.64038289 -0.26132801 1.8307128 0.62111658 -0.10698275 -0.77757317 0.035691589
0.37448835 -0.34485376 1.7314556 0.74418455 -0.57323438 0.34308484 0.0059236214
0.15507239 -0.3199721 1.7379235 -0.35976493 -0.7158215 0.60303503 0.032053255
0.14543574 -0.32220879 1.7417891 -0.24297304 -0.76105338 0.60537767 0.017930945
0.13285495 -0.32135847 1.7458038 0.023510976 -0.8640455 0.50608337 0.017932447
-0.1442831 -0.29778993 1.7648827 -0.43965358 -0.55570805 0.70597935 0.087912135
-0.15388532 -0.29819447 1.7695501 -0.3903738 -0.74755251 0.53948843 0.058139995
-0.1675639 -0.30146408 1.7744248 -0.35354018 -0.88383698 0.31043446 0.021081405
-0.18111265 -0.30116606 1.7783343 -0.22473028 -0.95771533 0.18036409 0.019802691
-0.19753316 -0.3009648 1.7806703 -0.28506699 -0.96025813 -0.037297402 0.011142459
-0.25990772 -0.29386559 1.7811059 0.6833595 -0.71944851 0.12978165 0.01486742
-0.34656811 -0.28280532 1.7822965 -0.22299005 -0.94532341 0.2383731 0.0060855001
-0.36090264 -0.28314266 1.7844547 0.12101976 -0.98622745 0.1185197 0.017464735
-0.36936423 -0.28007045 1.7827317 0.27689156 -0.95951307 0.056159928 0.014712263
0.366337 -0.34793994 1.7095577 0.69298971 -0.61660516 0.37494612 0.01493238
0.24238251 -0.33324784 1.7119943 -0.22895508 -0.94655961 0.22905345 0.009542889
0.23784871 -0.33387494 1.7126498 -0.1563385 -0.96414953 0.21734628 0.0081027215
0.16729346 -0.33185527 1.7226003 -0.38194236 -0.90029591 0.20986736 0.019713143
0.15891603 -0.32811397 1.7284055 -0.4070918 -0.85311621 0.33927462 0.02710329
0.14534219 -0.33087856 1.7321775 -0.28505412 -0.85496789 0.43606108 0.021483256
0.1341445 -0.33319676 1.7341356 -0.10121907 -0.89794838 0.42864394 0.025602
-0.14632156 -0.30078286 1.7533461 -0.78829747 -0.23424771 0.67465055 0.080071501
-0.15356377 -0.30856431 1.7590699 -0.68932354 -0.50176328 0.53847063 0.046866845
-0.2645905 -0.30029258 1.7714818 0.72230726 -0.66842562 0.17839566 0.0078894868
-0.27214581 -0.2963798 1.763799 0.58473003 -0.78352261 0.21712956 0.012995637
-0.28270298 -0.2923997 1.7589219 0.30578563 -0.92117989 0.24724761 0.018149337
-0.31877121 -0.29294538 1.7645671 -0.388432 -0.88234818 0.26567331 0.00040177527
-0.33331671 -0.29198223 1.7725391 -0.3922658 -0.88241237 0.25981128 0.00041505913
-0.34864184 -0.29244533 1.7790303 -0.20633155 -0.94980663 0.24359977 0.015427926
-0.36320046 -0.29264921 1.7803196 0.11625383 -0.97666538 0.19151323 0.020289028
-0.37777913 -0.29083246 1.7757221 0.38037997 -0.91823405 0.11568842 0.011170214
-0.38985464 -0.28646344 1.7698268 0.58969253 -0.80898172 -0.025642123 0.031329107
-0.66564816 -0.26914194 1.801139 0.84085977 -0.038438864 -0.54312229 0.0031097573
0.36259699 -0.35486197 1.6994427 0.57954621 -0.75863105 0.34840855 0.015479385
0.35102889 -0.35079902 1.695586 0.26478934 -0.90949506 0.3228263 0.023348618
0.33610541 -0.34974614 1.6948335 -0.018739279 -0.96513885 0.2616196 0.010138496
0.32123226 -0.35163936 1.6967702 -0.055701256 -0.9736864 0.22181903 0.0032270269
0.30469802 -0.34612605 1.6986841 0.10194578 -0.96439588 0.24410996 0.0050488403
0.29240161 -0.34289911 1.6981515 0.11231482 -0.95923507 0.25943771 0.0038409894
0.27408004 -0.3414582 1.6969801 -0.092826471 -0.96663511 0.24281034 0.010341163
0.25955826 -0.34510165 1.7003889 -0.31843656 -0.92140955 0.22293778 0.0035100623
0.24733187 -0.3443146 1.705693 -0.26994917 -0.9364925 0.22416574 0.00530549
0.23282598 -0.34325188 1.7088213 -0.10606512 -0.96875137 0.22721127 0.0041614743
0.21679305 -0.34128171 1.7092589 -0.0033461535 -0.98160827 0.19165906 0.0019314986
0.20148034 -0.33780947 1.708992 -0.10020487 -0.97758955 0.18743408 0.0073267063
0.18880047 -0.33746281 1.7120526 -0.3186186 -0.93455452 0.16435687 0.01438108
-0.15179738 -0.30872461 1.7390471 0.78256142 0.3377088 -0.54844898 0.019515513
-0.27868578 -0.30530411 1.7550341 0.39667654 -0.8866474 0.24088049 0.024254598
-0.28998384 -0.30136961 1.7533606 0.12033549 -0.96375197 0.24790537 0.012476061
-0.30323383 -0.2994484 1.7553108 -0.19120906 -0.94909406 0.25292128 0.0056352667
-0.31691122 -0.30257973 1.7588632 -0.34901729 -0.9003582 0.26022658 0.0021247107
-0.39329028 -0.29496652 1.7667488 0.21422881 -0.97354162 0.10787997 0.010623447
-0.66378808 -0.26526979 1.7874428 0.86441272 -0.027889319 -0.50407499 0.00031977709
0.34631324 -0.36138812 1.6900046 0.11569794 -0.95889449 0.26606995 0.014309386
0.33927527 -0.36060706 1.6900796 -0.0079420647 -0.96515769 0.26309979 0.010626805
0.30354148 -0.35730055 1.694016 0.13104112 -0.96661663 0.22048761 0.0034421387
0.28792223 -0.35355982 1.6919575 0.099638581 -0.961353 0.2574181 0.0039748801
0.27454919 -0.35171881 1.6925634 -0.12400526 -0.96051925 0.25501284 0.0064247954
0.26400763 -0.35224253 1.6950048 -0.26822811 -0.93128878 0.24737783 0.0065184934
-0.14969611 -0.31121925 1.7270516 -0.56252241 -0.3850368 0.73165226 0.014290068
-0.41583508 -0.29183558 1.7471714 0.70861495 -0.65203291 -0.27697554 0.016653536
-0.42536286 -0.29809996 1.7391226 0.88195086 -0.41985378 -0.2982575 0.029282181
-0.94798714 -0.25603855 1.7809672 -0.35940766 -0.76186854 -0.57182485 0.0092396569
-0.96402615 -0.25403133 1.7823275 0.052989949 -0.74615788 -0.66454577 0.035785731
-0.97829878 -0.25320441 1.7813081 0.27369606 -0.65810621 -0.760171 0.043085087
-0.98627454 -0.25018048 1.7789237 0.59430999 -0.3395032 1.1772664 0.055330805
-0.42841145 -0.29503381 1.7258353 0.98168766 0.02208535 -0.20844395 0.056632206
-0.92314869 -0.26385808 1.7644973 0.21990697 1.1401294 -0.68579113 0.0054347431
-0.93113351 -0.26719177 1.7700062 0.80916125 0.74889964 -0.11465927 0.061596449
-0.98670459 -0.25028372 1.7713593 -0.56135809 0.038805071 0.83165181 0.094891272
-0.41754293 -0.30708572 1.7032402 0.79738677 0.62998646 0.031904966 0.0029140122
-0.9238534 -0.26828325 1.7521013 -0.87386006 -0.57940739 0.71893972 0.029063947
-0.99210149 -0.25828093 1.7588731 0.67085254 0.67436999 -0.46820697 0.07736636
-0.41398212 -0.32006294 1.6960065 0.86134005 0.50367874 0.066336624 0.00015118848
-0.92698437 -0.27549353 1.7444292 0.21230061 -0.91194135 0.53479242 0.032138806
-0.93724555 -0.27724278 1.7362187 0.5670113 -0.66625065 0.52433258 0.0065913675
-0.95223385 -0.26939785 1.7309726 0.17393826 -1.0732409 -0.042769674 0.044443849
-0.96285796 -0.26683006 1.7323421 -0.38276562 -0.93706721 -0.04478845 0.035702612
-0.97969866 -0.26832822 1.7430091 -0.62157798 -0.77306932 0.13220342 0.009077359
-0.9385615 -0.28010309 1.7321485 0.77168393 -0.67443597 0.30518344 0.0065913675
-0.93691093 -0.21269478 1.9517676 -0.11506917 -0.99446642 0.032339223 0.01098621
-0.94710964 -0.212823 1.9517035 -0.013843754 -0.99786782 0.066069581 0.016440816
-0.95948976 -0.21096222 1.9504746 0.044987064 -0.96604449 0.27523997 0.063511185
-0.97885436 -0.20679131 1.9560503 -0.20526049 -0.75517905 0.62296939 0.041344859
-0.9916296 -0.20840119 1.9588959 -0.32032493 -0.68957853 0.65010333 0.019432276
-1.0029858 -0.21097644 1.9635316 -0.39440277 -0.73358983 0.55530059 0.023169432
-0.90498042 -0.22746755 1.939243 -0.38228759 -0.91567624 0.12675032 0.0049475399
-0.91488647 -0.22279359 1.9441334 -0.30560037 -0.94801408 0.08964245 0.0035435883
-0.9305197 -0.22398694 1.9471673 -0.15029511 -0.97894675 0.13882127 0.0016640426
-0.94530255 -0.22383204 1.949358 0.060732644 -0.98662895 0.15211128 0.022727389
-0.96135169 -0.22031501 1.9458842 0.21553382 -0.93958437 0.27246651 0.036111496
-0.97652268 -0.21502922 1.9429808 0.03249006 -0.85186434 0.52597499 0.057249147
-0.99241579 -0.21573091 1.9460629 -0.34676671 -0.68374985 0.64395612 0.019216361
-1.0085336 -0.22050147 1.9572184 -0.46428627 -0.67685366 0.57632095 0.013116709
-0.78661448 -0.23520194 1.9129194 -0.3696419 -0.82580692 0.42593199 0.019902939
-0.80035067 -0.24140471 1.9172692 -0.34780335 -0.85673302 0.4073922 0.032299329
-0.8191582 -0.23520263 1.9211262 -0.062424134 -0.98531026 0.16909012 0.025565643
-0.82943499 -0.23834069 1.9187481 0.012095196 -0.98938149 0.14518672 0.0076430766
-0.84322029 -0.2328313 1.91974 -0.01217627 -0.98317933 0.18246411 0.0043758745
-0.85976571 -0.23431298 1.9198972 -0.058290221 -0.97165161 0.22997291 0.0017944472
-0.87471336 -0.23399238 1.9208523 -0.23517855 -0.94662225 0.22118434 0.010609449
-0.88482302 -0.22932762 1.9268718 -0.36382827 -0.91278642 0.18793924 0.009841851
-0.89881068 -0.23451395 1.9338291 -0.41158447 -0.90068114 0.13991489 0.0030629684
-0.96912998 -0.22830568 1.9381912 0.28985307 -0.88762039 0.35865745 0.033380989
-0.97773641 -0.22594616 1.9355043 0.1729486 -0.87897718 0.44487342 0.034002993
-0.98924154 -0.22358623 1.9358734 -0.15893748 -0.83571863 0.52996337 0.044356115
-1.0032867 -0.23135076 1.9364874 -0.40983495 -0.76506853 0.50133634 0.021179389
-0.760337 -0.2421681 1.8908373 -0.31348315 -0.75985622 0.56959486 0.00078480784
-0.77239347 -0.24142577 1.8984849 -0.35788664 -0.75505275 0.54947484 0.0021353492
-0.78555793 -0.24553509 1.9011643 -0.395432 -0.70339942 0.59118605 0.0098849321
-0.79709387 -0.24881548 1.9062819 -0.38752306 -0.74423212 0.5475015 0.030048395
0.40634772 -0.34709933 1.778811 0.77077574 -0.51514035 0.37488091 0.00069084164
-0.64585042 -0.25398168 1.8664248 -0.29010713 -0.68389541 0.66968572 0.0094167348
-0.65441501 -0.25448456 1.8688254 -0.19959109 -0.73196793 0.65302545 0.0085358294
-0.66858149 -0.25320145 1.8709067 -0.055645276 -0.78136182 0.62174606 0.0027929246
-0.68396467 -0.25301433 1.8707771 -0.0060784742 -0.83578241 0.54939497 0.0061483197
-0.69802892 -0.25129956 1.8715789 -0.023644771 -0.83579642 0.54860896 0.002871667
-0.71099752 -0.24932779 1.8742831 -0.019040741 -0.83871871 0.5444811 0.0014705615
-0.72736561 -0.24839109 1.8751976 -0.04984786 -0.8199665 0.57033324 0.0012627554
-0.74444538 -0.24708459 1.8787422 -0.19493221 -0.80230826 0.56420887 0.0030981444
-0.75711018 -0.24879436 1.8818256 -0.30114141 -0.77989995 0.54892927 0.00081877346
-0.77149934 -0.25210685 1.8858021 -0.34920794 -0.76073784 0.54716855 0.00065241603
-0.78758287 -0.25322649 1.8924166 -0.36751738 -0.73766923 0.56674159 0.0096902279
-0.64362168 -0.25854895 1.8578926 -0.35782024 -0.55029249 0.75448263 0.015395821
-0.65362012 -0.26145071 1.8592707 -0.25568625 -0.62141407 0.74158251 0.01031368
-0.66944784 -0.26147178 1.8621845 -0.11504675 -0.74585205 0.65626627 0.0084569566
-0.68530315 -0.26093131 1.863518 -0.03754431 -0.81519479 0.57803816 0.0079793287
-0.7000742 -0.26031473 1.8644569 -0.035683088 -0.83668232 0.54658407 0.0061299889
-0.71475214 -0.25923806 1.8656294 -0.034493852 -0.84544492 0.53319603 0.0068316683
-0.72921413 -0.25660732 1.8671137 -0.071465045 -0.84963822 0.52282012 0.0018190232
-0.74474871 -0.25791433 1.8688965 -0.20799491 -0.83931696 0.50233483 0.0012801836
-0.75846553 -0.25797158 1.8736447 -0.3041507 -0.81036448 0.50085437 0.00099028647
0.39645028 -0.35266387 1.7554066 0.847794 -0.47489849 0.26287597 0.0041281567
0.39395529 -0.34716195 1.7547215 0.81631088 -0.53458011 0.24453859 0.0071143792
-0.64362115 -0.26275778 1.8441036 -0.441239 -0.31687713 0.85064304 0.0048504253
-0.65555048 -0.26686379 1.8466187 -0.36396912 -0.46509516 0.80706453 0.007456413
-0.67037171 -0.26977122 1.8498181 -0.27153376 -0.66299838 0.69930875 0.014386631
-0.68436295 -0.26977041 1.8546319 -0.13343106 -0.7772221 0.61492312 0.016300023
-0.69974762 -0.27310625 1.85151 -0.091129623 -0.84825671 0.5236147 0.012409849
-0.71437186 -0.26728314 1.8579935 -0.061054621 -0.86024815 0.50640196 0.00829075
-0.72724777 -0.26696345 1.858915 -0.091795109 -0.88043171 0.4653374 0.0081645753
-0.73846257 -0.26624364 1.8605188 -0.15394279 -0.87987643 0.44959214 0.0023500829
0.39395103 -0.36207634 1.7399237 0.74107325 -0.56277072 0.37440574 0.0060702087
0.38826388 -0.35061374 1.7418927 0.7034235 -0.62635022 0.33618534 0.0067760185
-0.23880883 -0.30073071 1.78993 -0.16383199 -1.0534786 0.060740147 0.029191425
-0.65735942 -0.27060029 1.8335922 -0.5404563 -0.20589946 0.8358047 0.019029124
-0.66624534 -0.27448991 1.8379693 -0.49096376 -0.43488893 0.75981003 0.028759269
0.39190862 -0.36496404 1.7357597 0.69607252 -0.60960174 0.3797859 0.0059150867
0.38273144 -0.3597382 1.7294854 0.71333838 -0.59863156 0.36571416 0.0070058531
-0.17646007 -0.31561807 1.7709064 -0.43939582 -0.86866784 0.23073329 0.024270022
-0.18466297 -0.3142854 1.7753489 -0.41119376 -0.90531921 0.11606586 0.018453408
-0.19477692 -0.31050238 1.7801824 -0.35073885 -0.94654822 -0.043632701 0.017582241
-0.20779833 -0.31432477 1.7859685 -0.51242417 -0.86638051 -0.0080828564 0.0081439689
-0.24586368 -0.30599904 1.7896821 0.33052555 -0.97383291 -0.023597063 0.029614327
-0.25492847 -0.3071706 1.7823452 0.66979241 -0.73654097 0.10711229 0.018109335
-0.66310644 -0.27472058 1.8232528 -0.69409907 -0.087229572 0.73100477 0.049636018
-0.66699564 -0.274479 1.8150885 -0.13222457 -0.21756929 -1.7912391 0.019818855
0.37402314 -0.35897672 1.7131197 0.77709562 -0.53587514 0.33092612 0.0092969546
0.13146004 -0.33848694 1.7308705 -0.12650764 -0.88243335 0.48890749 0.013336584
-0.16114423 -0.3184607 1.7585359 0.68541729 0.60575795 -0.4078382 0.036837205
-0.16944316 -0.31819233 1.7660069 -0.47454342 -0.81259543 0.34277943 0.016488865
-0.17923693 -0.32411292 1.7686374 -0.49239129 -0.8038376 0.33378685 0.026483431
-0.2608453 -0.31213996 1.7714267 0.75785393 -0.6160177 0.21532296 0.011903429
-0.34741583 -0.30179197 1.7742742 -0.28170228 -0.93097156 0.23827417 0.011546677
-0.36253497 -0.30528548 1.7761527 0.067875817 -0.979267 0.19426383 0.017699037
-0.3724151 -0.30263373 1.7736859 0.24983853 -0.95271933 0.17892867 0.018432945
0.37178281 -0.37080798 1.6974564 0.6872943 -0.66998392 0.28198409 0.018215947
0.36848146 -0.3636058 1.698548 0.63237375 -0.70225555 0.33105561 0.023280157
0.31399998 -0.35756391 1.6956742 0.009548883 -0.9782216 0.20745841 0.0073991125
0.24071339 -0.35387546 1.7030628 -0.21442512 -0.94910663 0.23175226 0.0069897999
0.22424753 -0.35201621 1.7051467 -0.088914298 -0.98625737 0.14235413 0.0088451961
0.21732716 -0.35273665 1.7055098 -0.053123567 -0.99436921 0.1022386 0.008129281
0.18201374 -0.35523 1.7108073 -0.40376452 -0.90349138 0.14564866 0.005749993
0.17238259 -0.35187224 1.7175674 -0.33075827 -0.93198782 0.14930803 0.0091665452
0.15554503 -0.35116842 1.721841 -0.14371014 -0.95224231 0.27893314 0.0092072878
0.14062709 -0.35078773 1.7230242 0.0074433526 -0.92737496 0.43260959 0.0071222219
-0.16027468 -0.32824019 1.7512044 0.73351681 0.56309289 -0.39558524 0.031388953
-0.26395893 -0.31835714 1.7604992 0.67943496 -0.67177564 0.2978299 0.018902494
-0.27406713 -0.31690836 1.7525629 0.47000584 -0.84270066 0.26316541 0.0095628975
-0.28887355 -0.31097326 1.7494597 0.12438008 -0.96589577 0.24117872 0.015752727
-0.30561805 -0.31037059 1.750919 -0.21801417 -0.94576901 0.25039503 0.0070244572
-0.32146221 -0.31373259 1.7557362 -0.37369502 -0.89371365 0.24858344 0.00033583111
-0.33379093 -0.3097083 1.7639432 -0.40272081 -0.87922722 0.25456718 0.00028281016
-0.3472513 -0.31155455 1.7696779 -0.28870201 -0.92664367 0.24225014 0.012774122
-0.37134746 -0.30369461 1.7737257 0.22931413 -0.95463318 0.19104975 0.01666832
-0.38006595 -0.30790082 1.7677917 0.34374443 -0.92877859 0.15214954 0.013925216
-0.39655054 -0.30696523 1.7632974 0.37157404 -0.92863643 0.015848916 0.022223832
-0.40587595 -0.31305066 1.7585959 0.37778452 -0.92717791 0.016890496 0.02733184
-0.67832154 -0.29143879 1.786183 0.87666661 0.012260084 -0.48094198 0.00011932272
0.36242893 -0.3741678 1.6889127 0.41927886 -0.87217438 0.26304406 0.0036401788
0.3489702 -0.37032583 1.686128 0.16347674 -0.94691473 0.27700794 0.011857552
0.33228153 -0.36853483 1.6878889 -0.10468659 -0.95079333 0.29181048 0.0033506206
0.31969601 -0.36812371 1.6911268 -0.03549017 -0.95614636 0.29079294 0.0079179313
0.30380231 -0.36926824 1.6891407 0.11824614 -0.94424564 0.3079983 0.0066104438
0.29052472 -0.3634674 1.6879224 0.10831171 -0.95789671 0.26616141 0.004221472
0.27497476 -0.36179307 1.6876445 -0.10782205 -0.95904469 0.27097374 0.0083233314
0.25736648 -0.36290243 1.6932192 -0.31118807 -0.9077974 0.28138345 0.0031728735
0.24507704 -0.36397463 1.6984068 -0.27060553 -0.9218533 0.27781445 0.0059624417
0.22937322 -0.36122018 1.7018756 -0.18328916 -0.96704322 0.18026912 0.0081131421
0.21519396 -0.36042354 1.704059 -0.10656899 -0.99586362 0.076841637 0.0099990191
0.19142807 -0.35430789 1.7067657 -0.2420513 -0.96870941 0.079421498 0.0099129258
-0.28053749 -0.32404485 1.7457638 0.28330976 -0.92240739 0.26399928 0.015087843
-0.29323143 -0.3201873 1.7451519 0.028434118 -0.9686808 0.24855109 0.0079554664
-0.3067205 -0.32023352 1.7469192 -0.2299442 -0.94454873 0.23951578 0.0047435043
-0.31745183 -0.32129687 1.7503093 -0.33090326 -0.91299063 0.23878035 0.0020771765
-0.4035227 -0.31477037 1.7589656 0.36994997 -0.92930359 0.028878639 0.025134576
-0.40938163 -0.31419656 1.7565125 0.47151694 -0.88622206 -0.012410991 0.03913565
0.29509202 -0.37503904 1.683746 0.13281794 -0.90351385 0.40771502 0.011482245
0.28743264 -0.37176546 1.6840162 0.10038061 -0.92839807 0.36131409 0.013997044
0.27376518 -0.37098634 1.6842504 -0.10741522 -0.91837674 0.38599849 0.0168432
0.25725418 -0.3723577 1.687927 -0.33069682 -0.85282016 0.4044542 0.013174211
-0.93788064 -0.27447376 1.7808295 -0.63990706 -0.60706109 -0.48663491 0.0039979517
-0.94258088 -0.27288643 1.7848856 -0.55511409 -0.73962319 -0.40173644 0.013141591
-0.97403234 -0.27521685 1.7938647 -0.03643157 -0.77920467 -0.63109583 0.0052454183
-0.42886505 -0.31743446 1.7218044 1.0295339 0.083997071 -0.021188358 0.01742824
-0.9954235 -0.27547383 1.7555388 0.68792534 0.69114947 -0.2284213 0.019481216
-0.9286955 -0.28370139 1.7394016 0.5064885 -0.92915237 0.0351048 0.0030811517
-0.93431169 -0.28133518 1.7362677 0.61826742 -0.75693542 0.25447464 0.0030811517
-0.98065901 -0.28893927 1.7383888 -0.46895641 -0.88605845 -0.032067534 0.020228822
-0.92099506 -0.23427765 1.941907 -0.22061092 -0.96220905 0.16261509 0.001920843
-0.93430555 -0.23565705 1.9437009 -0.109681 -0.97794998 0.17781816 0.0015720641
-0.94817144 -0.23394075 1.945426 0.13745944 -0.97065175 0.20043196 0.019519892
-0.9605338 -0.22964624 1.9427892 0.3216871 -0.90401024 0.28267384 0.028937452
-1.0094333 -0.22516023 1.9508497 -0.59130692 -0.54402053 0.61372608 0.016385969
-1.0158036 -0.22849967 1.9531143 -0.21427895 -0.96573776 0.5897575 0.0068518226
-0.80516165 -0.24837069 1.9138098 -0.30583754 -0.83131105 0.46858945 0.046005838
-0.81495816 -0.24823588 1.9177889 -0.22188556 -0.91366184 0.34942153 0.049753089
-0.82585806 -0.2528066 1.9152828 -0.11237112 -0.93278706 0.35296401 0.033941973
