# .PCD v0.7 - Point Cloud Data file format
VERSION 0.7
FIELDS x y z normal_x normal_y normal_z curvature
SIZE 4 4 4 4 4 4 4
TYPE F F F F F F F
COUNT 1 1 1 1 1 1 1
WIDTH 599
HEIGHT 1
VIEWPOINT 0 0 0 1 0 0 0
POINTS 599
DATA ascii
-0.25392371 0.013241866 2.0110657 0.62537599 -0.58344167 0.52323341 0.033470355
0.21813327 0.011521089 2.0127015 -0.43202591 -0.62330651 0.65185356 0.0060149315
0.22981225 0.007185943 2.0154927 -0.40923062 -0.69779831 0.58828044 0.025131881
0.27564967 0.001795955 2.0233476 -0.090445608 -0.83300972 0.54620326 0.0077700312
-0.25447005 0.025732899 2.0218611 0.63826644 -0.54044193 0.55722696 0.018702801
-0.24881569 0.023984369 2.0155077 0.44606858 -0.59609824 0.67521179 0.020451806
-0.23336837 0.026206095 2.0142503 0.12952413 -0.63718843 0.76050884 0.0066151097
-0.21764806 0.026631717 2.0134416 -0.085537151 -0.66989118 0.73782283 0.0082530696
-0.20224494 0.023603238 2.015919 -0.26625738 -0.62512118 0.7345264 0.0045461836
-0.18761806 0.022493292 2.020716 -0.27382749 -0.56851631 0.77604139 0.0045910133
-0.17270613 0.019789474 2.0233972 -0.18791923 -0.67330855 0.77791286 0.0063193683
-0.14153776 0.020742616 2.0212994 0.22386298 -0.66228122 0.71548802 0.028544044
-0.12913792 0.024083862 2.0195363 0.27377796 -0.6201545 0.73530573 0.02407866
-0.11322489 0.024234978 2.0141473 0.34170243 -0.56064081 0.75594383 0.021340245
-0.10224501 0.02891707 2.0111558 0.46721008 -0.40259027 0.78740293 0.0059504276
0.1892278 0.027874677 2.011375 -0.36602145 -0.63652205 0.67920029 0.0079834843
0.20121197 0.024338517 2.0160623 -0.39891118 -0.62528539 0.67078495 0.0044692289
0.21688159 0.021094196 2.0200498 -0.45166469 -0.63667983 0.62518817 0.0080533251
-0.247567 0.034178909 2.0242746 0.44572064 -0.6254577 0.64216882 0.017293617
-0.23295318 0.036028516 2.0204866 0.13941385 -0.66703254 0.73244399 0.011957097
-0.21964708 0.035315976 2.0201838 -0.058355246 -0.6400848 0.76772785 0.0040717167
-0.20547858 0.034416262 2.0225086 -0.19460385 -0.58188379 0.79018521 0.0036843361
-0.12690982 0.034851495 2.0228746 0.32762647 -0.38048136 0.88064241 0.017326644
-0.11280853 0.039189462 2.0192385 0.40729323 -0.39599919 0.82537293 0.015296298
-0.098866262 0.040335197 2.0132036 0.50639641 -0.30270469 0.80775988 0.0022945905
0.13293642 0.044594415 2.0110936 -0.39680406 -0.66447181 0.63397402 0.0056580547
0.14484875 0.042567518 2.0169332 -0.33453673 -0.72285926 0.6049 0.011069112
0.15955767 0.037468061 2.0143883 -0.1706479 -0.7994678 0.57842833 0.008694184
0.17263252 0.037447114 2.0140929 -0.17926662 -0.76985002 0.61312503 0.013505023
0.18853991 0.034549989 2.0168712 -0.31080446 -0.78624618 0.53959912 0.026463712
0.19676307 0.034023631 2.0232439 -0.28866827 -0.82328278 0.4891423 0.021671576
-0.48553184 0.050064724 2.0170002 0.97222787 -6.4861156e-06 0.23403618 0
-0.10766786 0.052438058 2.0236986 0.53947073 -0.43517178 0.72113311 0.020886632
-0.097662248 0.052826844 2.0166395 0.56797016 -0.31013057 0.76257116 0.012651733
-0.086489461 0.055089265 2.0101473 0.57694358 -0.19314407 0.79503971 0.0048669605
0.11750457 0.055406112 2.0096345 -0.48002544 -0.5333643 0.69661468 0.0038703654
0.12933274 0.053354934 2.0172522 -0.48919305 -0.57980365 0.65166652 0.0046810661
0.13915201 0.050458163 2.0217488 -0.44400549 -0.66264373 0.60365826 0.0052373889
-0.095180131 0.063898183 2.0187252 0.65839237 -0.25893295 0.70705217 0.011973479
-0.086760446 0.065653242 2.0115726 0.66987824 -0.1347079 0.73332059 0.01273567
0.11313996 0.066583365 2.0148876 -0.50236017 -0.56000882 0.65885305 0.0091944002
0.12555461 0.064055033 2.0225382 -0.53466386 -0.55405098 0.63836515 0.0041259849
-0.090542242 0.075894378 2.0176432 0.73854893 -0.13508259 0.66537458 0.013235584
-0.08745864 0.081535704 2.0147848 0.7579295 -0.074925222 0.64814043 0.010901927
0.085639767 0.086478636 2.0115337 -0.49388844 -0.54589927 0.67814118 0.021970443
0.09550181 0.07956928 2.0173643 -0.5045917 -0.53798771 0.6785031 0.015963618
0.10956597 0.075953655 2.0205395 -0.47404504 -0.57315737 0.66857904 0.0051324181
-0.11052452 0.10277183 2.0228622 0.34809956 0.71476972 0.62498212 0.019402487
-0.09374807 0.099495485 2.0216663 0.48864815 0.61383843 0.65238094 0.078362338
-0.085745029 0.09587016 2.0193765 0.70962447 0.30823424 0.65474033 0.072038062
0.068507992 0.10321873 2.0126269 -0.52851021 -0.62330627 0.57720494 0.024820985
0.081522994 0.093578525 2.0135756 -0.53056324 -0.57100892 0.62734985 0.01955804
0.089872323 0.095053934 2.0228813 -0.5023703 -0.66694152 0.55087382 0.017471425
-0.11355039 0.10734459 2.0195472 -0.72019768 -0.32699084 -0.89985764 0.022310516
0.060262211 0.11061203 2.0142183 0.6599915 0.57064539 -0.49096701 0.021948062
0.066626072 0.10919813 2.0217695 -0.56486917 -0.65031481 0.5080421 0.013336139
-0.18773758 0.12285625 2.0237842 -0.46704239 -0.86935318 -0.16529591 0.0049073482
0.049952757 0.12934484 2.0227993 0.77856773 0.45705497 -0.43264958 0.0094261197
-0.22801648 0.14892673 2.0099604 0.82635248 0.55828524 0.21995965 0.0091547845
-0.22181909 0.14477798 2.0101206 -0.41240945 -0.91556948 -0.36539984 0.014061425
0.044333868 0.17638351 2.0220001 0.99975973 5.383767e-07 -0.02191934 0
0.044290014 0.18146195 2.02 0.99975973 5.383767e-07 -0.02191934 0
-1.0817757 0.38731733 2.0242393 0.50413245 0.61375189 0.6082111 0.015921753
-1.0700406 0.38579857 2.016619 -0.33177149 -0.73800808 -0.59164023 0.010885734
-1.0575433 0.38257411 2.0157652 0.026267255 -0.85577989 -0.52711236 0.023059249
-1.0447319 0.38383675 2.018333 0.37717056 -0.86470073 -0.33459803 0.027558172
-1.0870095 0.39676023 2.0208123 0.63135523 0.53560507 0.56151497 0.0096276719
-1.0779014 0.39271218 2.0150011 -0.50313932 -0.65889573 -0.55962145 0.014348894
-1.03734 0.38994616 2.0143058 0.41298845 -0.86197084 -0.29444548 0.018389061
-1.0261745 0.39614096 2.0165005 0.51584584 -0.82421613 -0.23469818 0.0084580667
-1.0142921 0.40130419 2.0225291 0.5637207 -0.76569706 -0.312915 0.0044937623
-1.0925655 0.40683848 2.0212038 0.82107496 0.16155875 0.72180265 0.011733522
-1.0112088 0.40711954 2.0147941 0.40465477 -0.88791388 -0.22093406 0.019576821
-1.0040103 0.41064703 2.0158741 0.32368088 -0.93244946 -0.2048447 0.016104871
-0.97498953 0.4101288 2.0097888 0.39161077 -0.85205811 -0.35461202 0.054473687
-0.96314043 0.41732639 2.019521 0.69678551 -0.82494354 -0.24603938 0.051633738
-0.96106869 0.4187125 2.0224228 0.75827086 -0.74875808 -0.20930433 0.047594342
-0.95987946 0.42657322 2.0123301 0.84597403 -0.21138576 -0.49153864 0.066874467
-0.9568643 0.4294422 2.0204761 0.91823596 -0.14807308 -0.37981984 0.049171437
-0.96198952 0.44376099 2.0168717 0.79755157 0.40164235 -0.53609657 0.032995779
-0.95939368 0.44159096 2.0205581 0.89262199 0.27335224 -0.45234755 0.010340908
-0.78376901 0.47876197 2.0125282 1.0589827 0.74243885 -0.32892695 0.020233883
-0.79839301 0.49064904 2.0215952 0.70172024 0.50989741 0.51179689 0.020166911
-0.78812706 0.48494583 2.0142527 0.83278894 0.5767346 0.21067944 0.01619946
-0.80260974 0.5026415 2.0186837 0.68781161 0.300852 0.66349089 0.018363893
-0.79576969 0.49523723 2.014967 0.74855971 0.35735601 0.57190198 0.021547677
-0.81348437 0.52130467 2.0240817 0.60955393 0.046727605 0.79378718 0.0073934384
-0.80238825 0.51646739 2.015342 0.6250242 0.079998456 0.77839309 0.0035844154
-0.80263644 0.53229493 2.0152767 0.60852969 -0.082572572 0.78951234 0.0036104743
-0.38330585 0.53245527 2.0110428 -0.62052751 -0.14137836 0.77585626 0.0038328306
-0.80308211 0.54849112 2.0174749 0.58738542 -0.12088129 0.80060667 0.0041099312
-0.79266542 0.54939067 2.011837 0.45028254 -0.15974906 0.88046664 0.015721248
-0.38816109 0.54960322 2.0133901 -0.72902662 -0.25218523 0.66160101 0.012789344
-0.80328482 0.56443328 2.018235 0.53412765 0.1241176 0.84959882 0.057980254
-0.78763622 0.56287992 2.0140481 0.26824746 -0.073193163 0.97484446 0.061832651
-0.77660447 0.56736702 2.0112584 0.010852086 -0.17773019 0.98447758 0.078370683
-0.75938898 0.56800443 2.0134017 -0.31885263 -0.5891462 0.8244257 0.11828969
-0.59009224 0.5664767 2.0168967 0.3113161 -0.90875989 0.77313435 0.041814037
-0.39471564 0.56370258 2.0127139 -0.60763317 -0.16068158 0.78107619 0.020704003
-0.38621983 0.56448919 2.0208716 0.86076319 0.18103556 -0.5296343 0.017903822
-0.80327731 0.57791787 2.0119712 0.45464349 0.51926005 0.73880273 0.055038352
-0.78748512 0.57499903 2.0106483 0.050436873 0.32996458 0.98167634 0.057910018
-0.77390802 0.57862723 2.0149915 -0.42942947 0.27920023 0.92200005 0.13312855
-0.76394534 0.57911932 2.0202372 0.66363174 0.48299977 -0.75222611 0.16832504
-0.63025624 0.57820916 2.013988 0.6446175 -0.60155326 -0.49021116 0.06775146
-0.62396526 0.57889605 2.0216765 0.45260561 -0.49950033 -0.81829101 0.068100713
-0.5917629 0.57631886 2.0253801 0.40832892 -0.38968146 0.85860419 0.057932857
-0.57778108 0.57922727 2.0182314 0.58750534 -0.21274018 0.83669299 0.032150503
-0.56808972 0.57253271 2.009223 0.62228638 -0.42301157 0.81097382 0.032275382
-0.39530477 0.57857937 2.0126326 -0.51013428 0.33887461 0.80274791 0.045415089
-0.81986916 0.59548849 2.015311 0.64141542 0.67200482 0.37177962 0.025366381
-0.7673623 0.58715147 2.0150566 0.74604702 -0.40441775 -0.53310996 0.13616608
-0.76298636 0.59024292 2.0206139 0.87736678 -0.3239229 -0.3667959 0.1349277
-0.62078226 0.59190649 2.0185983 0.71633554 -0.60257816 -0.39181826 0.075833589
-0.58911163 0.59777904 2.020546 -0.47764015 -0.66108286 -0.59698617 0.12301759
-0.57735842 0.59234345 2.0146351 -0.61579388 -0.46039096 -0.67977595 0.10380219
-0.95449829 0.60574585 2.0160003 7.3171163e-06 -0.95770079 0.28776586 0
-0.94427699 0.60436797 2.0109828 -0.05679632 -0.98879552 0.13804922 1.7452845e-05
-0.87075192 0.60518259 2.0098686 0.08666458 -0.99010003 0.11064774 0.0018973912
-0.85959363 0.60799021 2.01475 -0.1225274 -0.46353865 1.4898891 0.0044913441
-0.84789652 0.60787523 2.0156074 -0.033603914 -1.0022097 0.022161618 0.014847451
-0.83413363 0.60532266 2.0111177 -0.335127 -0.94117844 -0.070483632 0.037339464
-0.8220436 0.59812671 2.0142722 -0.56447476 -0.7696569 -0.30268595 0.021422176
-0.75276685 0.60420334 2.0220439 0.51986057 -0.83090556 0.21426897 0.075083256
-0.7277981 0.60972667 2.0125031 -0.012052728 -0.99976814 0.018213373 0.0053773178
-0.71165276 0.60799289 2.013284 -0.31433254 -0.94216138 -0.12356967 0.025489146
-0.70340371 0.60497689 2.0111699 -0.43656176 -0.87417924 -0.21808767 0.020406945
-0.61595798 0.59931856 2.017451 0.50346631 -0.78073061 -0.40224215 0.076302581
-0.60787809 0.60259384 2.022572 0.14588094 -0.87507629 -0.49739197 0.14360088
-0.59386772 0.59913707 2.0207677 -0.35771197 -0.79172826 -0.51051551 0.10608413
-0.72098774 -0.36564031 1.7478647 0.9159317 0.04496197 -0.41003674 0.05169582
-0.82147396 -0.30199531 1.8002611 0.53972226 -0.69831157 0.49734125 0.01878592
0.30550927 -0.06804616 1.9422344 -0.167044 0.11880248 0.98054546 0.051726621
-1.1165013 -0.12436576 2.039 0.45813188 -0.48458338 0.75647253 0.00067178853
-1.1053262 -0.12389134 2.0328801 0.53243464 -0.31877723 0.92901033 0.017057555
-1.091754 -0.12219547 2.0262942 0.20585731 -0.81987864 0.55242658 0.029016128
-1.1114278 -0.11845981 2.0382926 0.51873308 -0.36492139 0.87464988 0.025290661
-1.1011349 -0.11449157 2.035862 0.28117916 -0.57536334 0.80581677 0.018966189
-1.088335 -0.11466423 2.0342088 0.10915603 -0.73343754 0.67976236 0.013639949
-1.0773097 -0.11652891 2.0314941 0.13058662 -0.84918237 0.51757246 0.027296484
-1.0628482 -0.11481097 2.0385802 0.065526083 -0.87145126 0.48726803 0.02153137
-1.0424314 -0.11434741 2.0348716 0.20189035 -0.84163052 0.51841772 0.029093523
-1.0247928 -0.10944734 2.0316541 0.34010297 -0.69046861 0.63899726 0.036526665
-1.013307 -0.10657796 2.0261495 0.35066724 -0.63800293 0.68604183 0.025422899
-1.0231584 -0.10018049 2.0371442 0.42398816 -0.51440704 0.74545425 0.0079138223
-1.0107036 -0.096419886 2.0310149 0.38746807 -0.53259218 0.7539798 0.01049745
-0.99678433 -0.09221717 2.0277259 0.20902082 -0.61335617 0.76177883 0.015193004
-0.98292434 -0.092054881 2.0260932 0.082830034 -0.71087557 0.69858414 0.0050519351
-0.96713006 -0.092018612 2.026051 0.034751303 -0.74424481 0.66701543 0.00063826388
-0.95373696 -0.091863923 2.0254328 0.11418689 -0.73468155 0.66899681 0.0029216507
-1.0115495 -0.084936112 2.0371614 0.31580651 -0.53596693 0.78497452 0.010266273
-0.99809366 -0.084039859 2.0346606 0.1057993 -0.64240974 0.76416963 0.017938511
-0.98177004 -0.084608391 2.0346882 0.006657809 -0.72913098 0.68434316 0.001946208
-0.96776652 -0.083897635 2.0361536 0.033669621 -0.73996615 0.67183876 0.0019550687
-0.95300108 -0.083152011 2.0348337 0.053093404 -0.76706415 0.63952166 0.0079592597
-0.93932289 -0.08206398 2.0352848 0.072354957 -0.82346159 0.56306183 0.020949772
-0.91889763 -0.08042071 2.0369389 -0.051077589 -0.90638846 0.42163849 0.011596148
-0.90689272 -0.084073782 2.0285571 -0.1834635 -0.89772713 0.40971595 0.0097690895
-0.89176309 -0.087263763 2.0344357 -0.099840201 -0.86962098 0.49673656 0.013096647
-0.87238377 -0.081252277 2.0375459 0.23669216 -0.83774793 0.49758777 0.025693433
-0.86349529 -0.081113353 2.0323784 0.2082995 -0.83758831 0.50844181 0.035596706
-0.84830207 -0.078501642 2.0293157 0.25759313 -0.68968606 0.67757219 0.044451352
-0.85668176 -0.07135006 2.0390098 0.40946323 -0.57005405 0.71297657 0.0056639551
-0.845761 -0.067352332 2.0354099 0.38635921 -0.51268309 0.76807666 0.0081101526
-0.83536702 -0.064650349 2.030683 0.49437472 -0.42261854 0.75975096 0.012515418
-0.84085709 -0.055355586 2.0388572 0.41031176 -0.44454804 0.7963677 0.0032675166
-0.83269477 -0.051771037 2.036238 0.52902746 -0.45185554 0.7184934 0.0099645685
-0.78899193 -0.046879962 2.0237842 0.045701444 -0.59013247 0.80618846 0.014294813
-0.83057547 -0.044454269 2.0385208 0.49881324 -0.52325207 0.69366205 0.015915455
-0.81536025 -0.038129982 2.0295546 0.31808069 -0.66907763 0.6778549 0.039424852
-0.80236387 -0.037228826 2.0296745 0.07071434 -0.71845287 0.69203895 0.028912563
-0.78849816 -0.03819279 2.0297189 0.065734759 -0.63916504 0.76849842 0.019544765
-0.77296972 -0.037229329 2.0289774 0.029913886 -0.54616749 0.83771402 0.0074653816
-0.75675809 -0.038502179 2.0285015 -0.042435985 -0.5509612 0.8342278 0.0017367897
-0.7419911 -0.03855091 2.0278301 0.071932912 -0.49959689 0.86334556 0.0076460992
-0.7276265 -0.036556803 2.026309 0.15605804 -0.42089438 0.89379752 0.012304199
-0.71490163 -0.038589612 2.0240712 0.18066435 -0.26058492 0.9485113 0.022549819
-0.70076889 -0.038194552 2.0210984 0.23193972 -0.13322075 0.9676556 0.015499449
-0.80007917 -0.030021269 2.0377476 0.16461058 -0.7904743 0.59530538 0.031210413
-0.7852391 -0.027780553 2.0369289 0.14939246 -0.76529157 0.6409936 0.02716505
-0.77025652 -0.026409864 2.0351372 0.039182402 -0.51494753 0.85662109 0.0033968103
-0.7583046 -0.024467247 2.0365064 -0.0014622691 -0.53081357 0.84749192 0.0010238716
-0.74399263 -0.025259083 2.0357213 0.12248746 -0.49979275 0.85744119 0.0059245084
-0.72764254 -0.023041341 2.0328655 0.32592613 -0.38791028 0.86246639 0.014549814
-0.71630329 -0.023518985 2.0271344 0.38928625 -0.18726471 0.90536374 0.031720944
-0.32153937 -0.017700532 2.0246043 -0.068601489 -0.7683478 0.63653409 0.024150377
-0.31132114 -0.016135689 2.023792 0.10970289 -0.74342233 0.66177887 0.026917852
0.33501458 -0.018247485 2.0310001 1.4427655 -0.33674103 0.29354653 0.015186596
-0.72539669 -0.011268263 2.0377216 0.51438165 -0.359974 0.7883175 0.028459461
-0.71224809 -0.0076721995 2.0278451 0.61830968 -0.098173589 0.7806564 0.011599928
-0.47020957 -0.0019551625 2.0249593 -0.59330958 -0.82858831 0.10588758 0.043799877
-0.45743248 -0.0032429933 2.0313358 -0.22250812 -0.92692095 0.30875134 0.033682648
-0.44183481 -0.0060283951 2.0296674 -0.18052831 -0.87071973 0.51711798 0.02167814
-0.42621797 -0.0077297469 2.0302014 0.11190586 -0.82742596 0.55089366 0.018628705
-0.41236338 -0.0020338679 2.0302083 0.2897945 -0.75370431 0.58990884 0.0008416457
-0.4031989 -0.0024071904 2.0250092 0.2727024 -0.75391054 0.59773588 0.00085308729
-0.34870917 -0.0028831423 2.02882 -0.33767739 -0.79063499 0.51105106 0.0028781828
-0.3351014 -0.0075024548 2.0320787 -0.25586364 -0.77692091 0.58263254 0.01965481
-0.32213983 -0.008922141 2.0341272 0.061784469 -0.71428883 0.71712345 0.029610915
-0.3083308 -0.0084248269 2.0293286 0.13747072 -0.75447291 0.64568317 0.029780747
-0.28968444 -0.00054484938 2.0369411 0.23479302 -0.9225843 0.34393737 0.036695573
-0.28110152 -0.0012820613 2.0322838 0.40337536 -0.75409794 0.52012998 0.032208961
0.29741991 -0.0015232137 2.0254478 -0.099641331 -0.84111148 0.53163695 0.011469088
0.30806163 -0.0022302924 2.0272439 -0.097362481 -0.83276606 0.55664396 0.015170779
0.32508576 -0.0017335408 2.0308771 -0.54691178 -0.63814569 0.56513768 0.053956486
-0.71237326 0.0081439493 2.0283906 0.7770344 -0.032887068 0.63570905 0.0054883193
-0.48307997 0.010292021 2.0279784 -0.57290149 -0.416547 0.78055441 0.012899119
-0.47522488 0.0019554088 2.0300066 -0.7562151 -0.77389431 -0.0073832236 0.056542024
-0.44545892 -0.0019799625 2.0374043 -0.066860624 -0.90244901 0.43250161 0.023240229
-0.41099283 0.0045744288 2.0377295 0.28787822 -0.75623548 0.58759505 0.00083502865
-0.39769617 0.0062554162 2.0331223 0.25447997 -0.76099724 0.59681869 0.00082993647
-0.38340273 0.0091113877 2.0316212 0.085073844 -0.79571408 0.60046709 0.0044659763
-0.36768612 0.009126327 2.032449 -0.20219231 -0.80463517 0.5603357 0.0075266729
-0.35346183 0.0043112091 2.0344336 -0.37415686 -0.78294265 0.49755684 0.003685025
-0.31553885 -0.00045869441 2.0393977 0.037035424 -0.80928272 0.58741325 0.029636927
-0.30983365 -0.0006214364 2.0391605 0.078468263 -0.84337616 0.53208095 0.030389346
-0.27283749 0.00548311 2.0350535 0.63076466 -0.54209977 0.55539721 0.008911537
-0.26623726 0.009882262 2.0298159 0.68816912 -0.46406224 0.55941182 0.0087819248
0.2354992 0.014170122 2.0334268 -0.48239434 -0.69311059 0.53612411 0.014800992
0.2454637 0.0076166927 2.0354185 -0.29019183 -0.79803294 0.53080773 0.018456899
0.26206109 0.0058079003 2.029496 -0.060994562 -0.86913764 0.49218854 0.007509979
0.2756376 0.008215596 2.0328023 -0.068268433 -0.84344447 0.53291917 0.0059039099
0.29351491 0.005577907 2.0327713 -0.13149342 -0.77968031 0.61435318 0.0065167467
0.30815604 0.0053098765 2.0345621 -0.10683896 -0.75601703 0.64849794 0.0053226952
0.32242849 0.0028592441 2.0350285 -0.48505434 -0.66401696 0.5846594 0.038343988
0.32824892 0.00072928023 2.0360816 -0.61953288 -0.58693248 0.52861613 0.045738958
-0.71360558 0.024015268 2.0316637 0.77460629 -0.10421982 0.63010061 0.00024389455
-0.48457286 0.018760001 2.0350001 1.8786069 -0.16758463 0.84674567 0.001954928
-0.26412868 0.018434407 2.0323112 0.71578479 -0.46809524 0.51862496 0.0049888366
-0.18482223 0.029066741 2.0262711 -0.22057533 -0.50253165 0.83712941 0.0047388435
-0.17080259 0.027628968 2.0287461 -0.11338585 -0.44942492 0.89015681 0.0068080141
-0.15597704 0.024207275 2.0273228 0.068574294 -0.51234674 0.86738366 0.0079194028
-0.14367588 0.027674781 2.0265005 0.23814431 -0.38528785 0.89226359 0.002328726
0.20804879 0.030229107 2.0243196 -0.30280447 -0.75088447 0.59246618 0.01918626
0.2182384 0.027236663 2.0271876 -0.4498072 -0.69457108 0.56150913 0.0089359963
0.22774826 0.017585261 2.0260632 -0.53620046 -0.62059891 0.57274765 0.0081818067
-0.71367949 0.036391139 2.0343099 0.86808723 -0.14635521 0.5530268 0.00088744954
-0.25694916 0.03457037 2.0350616 0.71529341 -0.52585942 0.47568411 0.020421015
-0.24261276 0.039370645 2.0268569 0.34555745 -0.67115819 0.65927762 0.014226226
-0.21625997 0.039773468 2.0249488 -0.058347907 -0.63562369 0.76989412 0.0074448809
-0.20192125 0.038567316 2.0265663 -0.17570674 -0.56200576 0.80932361 0.0084261671
-0.18759617 0.037489906 2.0291412 -0.21487632 -0.48874417 0.84555238 0.0060667051
-0.17211272 0.037210111 2.0321984 -0.1425992 -0.49681294 0.85805398 0.014878117
-0.15617295 0.036746211 2.0329144 0.049468189 -0.52011383 0.85428917 0.018360294
-0.14285573 0.037177172 2.0295074 0.24377647 -0.48784098 0.84222704 0.015780224
-0.13101044 0.038801562 2.026237 0.3130644 -0.4782241 0.82377523 0.01665313
-0.1186425 0.044708509 2.025423 0.39964685 -0.49119821 0.77546918 0.016674934
0.20300466 0.036866531 2.0324438 -0.22482523 -0.85808504 0.46184024 0.012191496
0.21553934 0.033301815 2.0328305 -0.39050409 -0.76725852 0.5118885 0.011570911
-0.71282643 0.047914162 2.0369987 0.67195934 -0.25328481 0.70600206 0.0018957618
-0.24453925 0.045624025 2.0350478 0.41737658 -0.66097051 0.62608045 0.012399873
-0.23185781 0.049056593 2.0343354 0.19107021 -0.69082761 0.6996336 0.017388482
-0.21887858 0.048659429 2.0330553 0.03603908 -0.63274032 0.77392679 0.0062184231
-0.20404966 0.050979603 2.0340044 -0.071701929 -0.55356121 0.83173633 0.0093291411
-0.18884008 0.04960648 2.0346119 -0.19908309 -0.51498717 0.83421981 0.009885841
-0.1742226 0.045090381 2.0364614 -0.20420618 -0.53182912 0.82219923 0.0088061187
-0.13719608 0.044182796 2.0328612 0.27855143 -0.55799013 0.78198373 0.010834161
-0.12637207 0.046776444 2.0307872 0.36573356 -0.55364472 0.74824256 0.014418161
-0.1157828 0.052343167 2.0300982 0.43735114 -0.53934985 0.71977621 0.018271394
0.14306536 0.053998258 2.0288944 -0.46329525 -0.66356319 0.58792353 0.0068515842
0.15589233 0.050112948 2.0328135 -0.38461551 -0.76579243 0.51604164 0.012812032
-0.20421344 0.059696831 2.0405948 0.039021313 -0.5640046 0.8260864 0.023087827
-0.19159922 0.059994474 2.0409939 -0.16271803 -0.53139496 0.83167762 0.02788173
-0.11358212 0.066001952 2.0399158 0.49484155 -0.23612961 0.84544629 0.03211309
-0.10300156 0.070145056 2.032937 0.6405772 -0.18711236 0.74686098 0.02616648
0.13152915 0.067085654 2.0305021 -0.53352118 -0.594464 0.60185266 0.0039806515
0.14277953 0.062090922 2.0368338 -0.51350391 -0.59084868 0.62227768 0.0060060183
-0.11409853 0.08257319 2.0387795 0.35909495 0.29801005 0.88453174 0.026765987
-0.099302627 0.082707137 2.0307446 0.58884716 0.12151198 0.80445403 0.046090931
0.10067056 0.088490345 2.0249004 -0.46626955 -0.65970576 0.59036249 0.017335067
0.11315202 0.08298967 2.0291047 -0.50691569 -0.64425504 0.57554483 0.010665593
0.12794727 0.07533028 2.0362585 -0.51872015 -0.62300897 0.58603668 0.0077950228
-0.15345716 0.10523801 2.0416145 0.15496552 0.44408229 0.88293755 0.043481361
-0.13445441 0.09970127 2.0394998 0.34794822 0.51445156 0.7839182 0.024710648
-0.1265893 0.098825842 2.0337167 0.40623757 0.50159836 0.76394153 0.027590875
-0.11486069 0.096105397 2.0310211 0.33632684 0.54019785 0.77694988 0.016803879
-0.10123655 0.095588662 2.0267494 0.49986029 0.49604094 0.71182686 0.047709286
0.080317877 0.10483097 2.0308974 -0.59333903 -0.67112803 0.44520259 0.016651494
0.097275652 0.092673421 2.0268831 -0.47722927 -0.68396479 0.5663442 0.024020469
0.10992165 0.091155335 2.0380657 -0.45230842 -0.75248259 0.4809041 0.01337259
-0.15645458 0.11117361 2.0345578 -0.34891322 -0.85051602 -0.50819033 0.07287854
-0.13522016 0.10869739 2.0340405 0.32294866 0.56769723 0.7595855 0.037296545
-0.12780607 0.10722081 2.0284708 0.34829816 0.70707387 0.63394684 0.034390904
0.066880375 0.11764207 2.0303233 0.6311245 0.53085452 -0.56577516 0.0025827542
0.077753291 0.11010307 2.0370288 -0.64827234 -0.58585137 0.49148819 0.021792665
-0.20398277 0.13167401 2.0303688 -0.5225063 -0.83876348 -0.15890576 0.0020317156
-0.1919753 0.12496048 2.0251937 -0.35830116 -0.9333151 -0.17972039 0.0047968114
0.053732339 0.12981315 2.0282583 0.64467996 0.47383595 -0.60020059 0.0048217922
0.062195256 0.12624808 2.0333476 0.62794656 0.49097162 -0.60386992 0.0017231872
-0.21672432 0.13990685 2.0285008 -0.53397906 -0.84693849 0.29406419 0.002452099
0.044903152 0.14266321 2.0256925 0.8403582 0.22598907 -0.4986009 0.020545959
0.052371901 0.14027381 2.0336382 0.6914891 0.39075539 -0.60996264 0.003424013
0.060351182 0.13522211 2.0382326 0.63626349 0.43870184 -0.63460141 0.0022793685
-0.23679247 0.15539126 2.0359199 -0.62274164 -0.78005999 -0.060821552 0.0013175451
0.044977952 0.15614785 2.0311751 0.91636187 0.16678134 -0.36549789 0.020258367
0.049950421 0.15126416 2.0380259 0.81997406 0.31103966 -0.49425662 0.017360978
0.043652441 0.16882151 2.0267265 1.0537028 0.077921882 0.05316988 0.016261531
-1.0845739 0.37423152 2.0391905 0.46466902 0.56277013 0.69039834 0.011863934
-1.0722489 0.37071538 2.0354614 -0.18042368 -0.72960877 -0.66114491 0.028715713
-1.0580425 0.3712911 2.0336552 0.24669833 -0.8181057 -0.52318496 0.047473796
-1.0868236 0.38308957 2.0334413 0.5536893 0.54907382 0.62646806 0.0076943082
-1.0710024 0.37700763 2.0277383 -0.2371365 -0.75544256 -0.6141178 0.024427399
-1.0563521 0.37682706 2.0253422 0.21605852 -0.85217875 -0.47938415 0.059485488
-1.0427037 0.38219017 2.0315983 0.62224537 -0.76616007 -0.1672233 0.047963765
-1.1007533 0.40366468 2.0287442 0.74743891 0.15330812 0.75197977 0.013293319
-1.0299459 0.39271387 2.0250194 0.5676688 -0.82289344 -0.074338488 0.019646103
-1.0066819 0.40549746 2.0304399 0.38998669 -0.92193949 -0.13724606 0.018058404
-1.0030286 0.40616196 2.034142 0.6112408 -0.84839118 -0.27613163 0.022120159
-1.0984213 0.40886676 2.0263875 0.74411631 -0.067942664 0.93817204 0.013293319
-1.0044065 0.40688887 2.0283008 0.37649873 -0.9110983 -0.19341625 0.018058404
-0.99835515 0.40832686 2.0363581 0.40922463 -0.90163833 -0.2451136 0.015561046
-0.97727585 0.40936241 2.0298378 0.31774518 -0.94661355 -0.061686125 0.020804895
-0.96785545 0.41250151 2.0279524 0.53155345 -0.84279579 -0.091406465 0.032629244
-0.95972311 0.41796482 2.0298631 0.7004326 -0.79378808 -0.13600869 0.060095742
-0.95302045 0.42635879 2.0329657 0.89105695 -0.39106789 -0.2464001 0.073267072
-0.95372015 0.4414843 2.032007 0.93226814 0.20120105 -0.38762486 0.016728628
-0.99644881 0.46454784 2.0376065 -0.34641248 -0.77780938 0.52441484 0.015869506
-0.98306626 0.45806056 2.037163 -0.2633132 -0.80064964 0.58447421 0.0086469967
-0.96151036 0.45033753 2.0250857 -0.64321905 -0.60679537 0.4762598 0.06919986
-0.95737159 0.45181042 2.0326355 0.71271801 0.58707047 -0.41798124 0.0748493
-0.80382478 0.48461652 2.0375953 0.59698725 0.78145713 0.29503405 0.0093749845
-0.83220124 0.50663853 2.0383763 0.46638536 0.49002239 0.73918319 0.056553736
-0.81754702 0.50275886 2.0318468 0.56106329 0.45550245 0.69582427 0.023611832
-0.84083325 0.51986331 2.0388715 0.3649801 0.052878428 0.93023092 0.022441151
-0.83116758 0.51607317 2.0344579 0.44828331 0.16884337 0.87782687 0.024550298
-0.81866378 0.51821578 2.0274458 0.55743891 0.11988355 0.82199842 0.02375653
-0.83100688 0.53123289 2.0357757 0.48145503 -0.1769819 0.85860306 0.0087848157
-0.81762785 0.53280246 2.0278363 0.58850354 -0.13315354 0.79774708 0.0043487246
-0.81983918 0.54654557 2.0329256 0.62099278 -0.17214216 0.76626724 0.0042581833
-0.81756914 0.56344146 2.0335205 0.68518263 0.036948401 0.72868246 0.0053892955
-0.64231241 0.56252861 2.0315266 -0.10392668 0.69898278 0.70754671 0.014035045
-0.62492979 0.56671113 2.0266893 0.0079209208 0.31223693 0.986287 0.052533071
-0.61163217 0.56648123 2.0269954 0.16803448 -0.18251273 1.0140694 0.069616273
-0.38289416 0.56216508 2.029 1.2711601 -0.034825236 0.050724085 0.011306855
-0.82753164 0.58131129 2.0399868 0.73152035 0.24822956 0.63513309 0.023494817
-0.8218531 0.57676607 2.0342703 0.75035995 0.24312651 0.6168586 0.011435796
-0.75373018 0.57925183 2.0334291 0.59942371 0.80555362 -0.5297429 0.059835665
-0.70131177 0.57951254 2.0343335 0.3850913 0.632469 1.0512133 0.012554773
-0.62383777 0.57097626 2.0251274 0.21494542 -0.49576047 -1.0111815 0.086248659
-0.60776657 0.57841849 2.0322011 0.0098927785 -0.19579889 1.0142311 0.091325805
-0.589454 0.58061033 2.0265455 0.45770252 -0.20620286 0.87877089 0.070251085
-0.82882953 0.58869427 2.0380774 0.7295289 0.3154802 0.60785496 0.01709529
-0.82482123 0.58890927 2.0328481 0.75728774 0.41185671 0.51061887 0.029340662
-0.70518434 0.59781516 2.0381532 0.74985266 0.3781656 0.6142354 0.084752157
-0.69947147 0.59228104 2.0318356 0.87016517 0.20710464 0.50514138 0.0650227
-0.61002678 0.59382582 2.0301106 -0.29936963 0.50853139 0.88760883 0.082305945
-0.59495801 0.59041494 2.0312581 0.31463814 0.27232459 0.94242764 0.11382994
-0.90441203 0.60718483 2.0390046 -0.058276404 -0.99997371 -0.024000589 0.0016778965
-0.88806593 0.60703671 2.0380008 0.022748109 -1.0039274 -0.078212462 0.0016064533
-0.88320011 0.60712349 2.0390091 0.040237855 -1.0036298 -0.069006979 0.0016064533
-0.83370489 0.60632497 2.035074 -0.50677407 -0.68663067 -0.59176791 0.063274227
-0.7638523 0.60059273 2.0359838 0.90839809 -0.42819074 0.015953083 0.11909285
-0.75908476 0.60503966 2.0310144 0.66183776 -1.0671198 0.19288148 0.088074028
-0.7434904 0.61003149 2.0289447 0.20637697 -0.9658162 0.16067095 0.04602148
-0.72522777 0.61065888 2.0279799 -0.07585723 -0.97622687 -0.20525967 0.034534767
-0.71861458 0.6078124 2.0392292 -0.38990748 -0.80729592 -0.4445281 0.12617047
-0.70522243 0.59989256 2.0366981 0.70061833 0.50276268 0.53591758 0.084752157
-0.6073603 0.60039479 2.0243464 0.19531779 -0.85058695 -0.54046655 0.14943016
-0.7272197 -0.45510414 1.6718382 0.031732272 -0.78508538 0.61858767 0.020153236
-0.65087038 -0.14302401 1.8981979 0.56435764 -0.44396973 0.69620085 0.0020354756
-0.49850625 0.72280818 1.9383698 -0.30670068 0.85299212 0.56845057 0.18126981
-1.1176109 -0.11352371 2.0456858 0.60700953 -0.5888508 0.60452682 0.035015367
-1.1065222 -0.110017 2.0419686 0.38307804 -0.70106906 0.63072652 0.020309236
-1.0847158 -0.10795341 2.0434625 0.016264219 -0.82520664 0.56478274 0.010418683
-1.0706717 -0.11010651 2.0440588 -0.048408605 -0.81579548 0.57728332 0.0054981755
-1.0559529 -0.10954218 2.0457156 0.14804773 -0.74607688 0.65939981 0.016980099
-1.0424175 -0.10985029 2.0418637 0.27762926 -0.73988181 0.61288166 0.030898742
-1.0862312 -0.10410429 2.0522048 0.080973573 -0.83532768 0.54549414 0.019320382
-1.0714055 -0.10540219 2.0510259 0.026027126 -0.7580983 0.65525168 0.027655754
-1.0575614 -0.10345323 2.0524437 0.18448916 -0.65006244 0.74164307 0.023327449
-1.0431871 -0.098353252 2.0503747 0.33761734 -0.48079643 0.81048018 0.013615187
-1.0290201 -0.097074442 2.0426109 0.40338424 -0.45811689 0.79256147 0.0046715164
-1.0405807 -0.086009182 2.0528791 0.35691604 -0.4076291 0.84053284 0.001319795
-1.0282404 -0.083367281 2.0489218 0.40993625 -0.43163025 0.80365288 0.0030642701
-1.0119498 -0.077133402 2.0428145 0.26132882 -0.57047445 0.77879947 0.016272124
-0.99601078 -0.076772235 2.0420158 -0.0067343181 -0.671143 0.74143165 0.0062499125
-0.98087937 -0.076800786 2.0436487 -0.042603049 -0.73224735 0.67998111 0.0016593903
-0.9680056 -0.076540135 2.0442009 0.033754893 -0.72492927 0.68802565 0.0085711004
-0.95641923 -0.076682262 2.0424113 -0.0048827343 -0.73035955 0.68305719 0.014730617
-0.93289483 -0.076186664 2.0459809 -0.047244862 -0.84999716 0.525841 0.01403915
-0.92227858 -0.078265972 2.0425463 -0.036671657 -0.88439834 0.46590966 0.011905435
-0.90781486 -0.078182518 2.0439668 -0.057509273 -0.86479205 0.49926308 0.015072599
-0.89250362 -0.080108792 2.0448549 0.033081651 -0.81442916 0.58130914 0.015750377
-0.87917942 -0.077996567 2.0450416 0.22846127 -0.71452916 0.66201371 0.0092493761
-0.86751282 -0.07713905 2.0404322 0.32811674 -0.68100715 0.65497559 0.0074209622
-1.0235817 -0.071282238 2.0529521 0.31805617 -0.47855213 0.81952775 0.013329937
-1.0112238 -0.066424318 2.0513556 0.13986889 -0.56591672 0.81293827 0.018444002
-0.99691957 -0.069063358 2.0493653 -0.024443055 -0.65841281 0.75238568 0.0082543548
-0.98393476 -0.070683591 2.0503314 -0.044349238 -0.67728454 0.73483235 0.0043803444
-0.96809626 -0.071326934 2.0498655 0.035193454 -0.68119442 0.73195243 0.0096182181
-0.95264786 -0.068490356 2.0493748 -0.051676311 -0.70101917 0.71189076 0.023328818
-0.94000679 -0.071728878 2.0503967 -0.093373924 -0.75887048 0.64642519 0.022697818
-0.92147756 -0.072245836 2.0536778 -0.023948483 -0.81374854 0.58786368 0.015036018
-0.90839928 -0.071674526 2.0538294 -0.023402235 -0.7728399 0.63747197 0.017269354
-0.87597823 -0.070592947 2.0504909 0.31695104 -0.60147458 0.73353505 0.0092136739
-0.86329913 -0.065164387 2.0469012 0.43371004 -0.48528007 0.75940162 0.0018979184
-0.85277724 -0.063324459 2.0417566 0.43091905 -0.4800449 0.7641421 0.0017480032
-0.95444334 -0.058701813 2.0582116 -0.13817161 -0.59312934 0.79449618 0.035155501
-0.85944712 -0.050581895 2.0524962 0.45009771 -0.40208781 0.79733419 0.0005300786
-0.84872156 -0.051448494 2.0457797 0.45449862 -0.41013461 0.79072362 0.00033444932
-0.84750056 -0.039182469 2.0500729 0.38042405 -0.50009429 0.77815783 0.015363179
-0.83369613 -0.038284574 2.0444889 0.3672286 -0.63984048 0.67720777 0.033898007
-0.82252842 -0.033068474 2.0441375 0.31463566 -0.78040361 0.5408687 0.027704328
-0.83645749 -0.030842749 2.0516021 0.17129068 -0.76482832 0.64663118 0.022558957
-0.79862356 -0.023245828 2.0527544 0.20939367 -0.90072244 0.38179681 0.012489273
-0.76692349 -0.018490929 2.0402665 0.028921865 -0.55994409 0.82970047 0.00092953583
-0.75405067 -0.018230231 2.0408323 0.014913871 -0.53113836 0.8505941 0.0055385735
-0.74050403 -0.017973751 2.0394411 0.18367526 -0.51587659 0.83731651 0.0055587729
-0.75417578 -0.014265089 2.0440187 0.20456828 -0.69806635 0.71062946 0.040925592
-0.74133033 -0.0082190763 2.0461092 0.32154986 -0.59998316 0.73467743 0.026192771
-0.72973025 -0.0041408679 2.0445912 0.4842076 -0.4302634 0.76716393 0.028403468
-0.46137121 0.0017205109 2.0496819 -0.018372489 -0.95824587 0.29196677 0.025051154
-0.43844816 -0.0010074307 2.0402853 0.070672892 -0.88555646 0.46378952 0.018949665
-0.43281376 -0.0015169597 2.0395272 0.080143511 -0.84431916 0.53613973 0.018102381
-0.33708099 -0.00064745027 2.0398767 -0.22833075 -0.80588496 0.55360895 0.025278235
-0.31874412 -0.0005660716 2.0393512 0.034328982 -0.80755436 0.59482956 0.033695687
-0.31097266 -0.00015944244 2.0395517 0.070874281 -0.85258931 0.51898533 0.033242822
0.33839688 -0.013045054 2.0509634 2.0553796 -1.0201848 0.50247991 0.022047818
-0.74009609 0.0028703874 2.0540504 0.46445385 -0.53906447 0.71198338 0.036520302
-0.73060513 0.0048181266 2.0514514 0.43030214 -0.46211511 0.81102562 0.012892462
-0.45619884 0.0021210646 2.050252 0.038498107 -0.94504791 0.33765221 0.023046929
-0.44058496 0.0040809461 2.0503275 0.1471439 -0.8835597 0.44750968 0.020904267
-0.42787719 0.0047164122 2.0478015 0.25401902 -0.80457264 0.54535419 0.014753788
-0.4140791 0.011185803 2.0481751 0.31522781 -0.77459139 0.54847163 0.00068800926
-0.39565066 0.013393196 2.0405841 0.23341908 -0.7783168 0.58432424 0.0043174294
-0.36397201 0.013392677 2.0410793 -0.2699165 -0.79567558 0.54298717 0.0064886259
-0.35338002 0.0110713 2.0468261 -0.40476313 -0.76416606 0.50374353 0.0050580595
-0.3394385 0.0043595098 2.0461724 -0.27643925 -0.82392639 0.49692696 0.01716272
-0.3248679 0.0026971933 2.0456147 -0.080227211 -0.86257356 0.50271988 0.022854352
-0.30233252 0.0053119995 2.052913 0.062194347 -0.91818094 0.39191151 0.015281041
-0.29064476 0.0048180809 2.0493722 0.25602514 -0.85810858 0.46180218 0.023021702
-0.2802909 0.0035672672 2.0411127 0.45964146 -0.78972024 0.4355512 0.034010384
0.24918321 0.013013025 2.0434203 -0.27084336 -0.74396068 0.61268991 0.027535539
0.26154342 0.012664585 2.04441 -0.048622511 -0.78347826 0.6203264 0.012860253
0.28158829 0.014107023 2.0450845 -0.0395298 -0.8024112 0.59556019 0.0070494036
0.29260099 0.014729205 2.0465927 -0.071660317 -0.79556918 0.60175246 0.0070171054
0.30748644 0.012122637 2.0430601 -0.086457826 -0.79647291 0.59853524 0.0058725728
0.32308903 0.01292434 2.0475898 -0.45542118 -0.74318904 0.49397165 0.056950975
-0.48707312 0.02684018 2.0455 0.99706006 -0.012854703 0.24904309 0.00012148758
-0.39412746 0.02081137 2.0505621 0.22413133 -0.76967049 0.59890974 0.0050114794
-0.38236737 0.022066558 2.0488176 0.057557948 -0.78714895 0.61485058 0.0036546076
-0.3679969 0.020490443 2.0488045 -0.24228641 -0.7792334 0.58072037 0.015120422
0.23320533 0.02668765 2.0434668 -0.47974357 -0.63589168 0.60461777 0.015029866
0.24674796 0.022743121 2.0496686 -0.31039026 -0.59479928 0.7417056 0.0022297448
0.26367569 0.0191429 2.050765 -0.079737097 -0.71441376 0.69534796 0.010265677
0.2769618 0.018669935 2.0512171 -0.066242434 -0.75988811 0.6477561 0.009351708
0.29059315 0.018881803 2.0530381 -0.070225865 -0.77472067 0.62902135 0.0090021035
0.31676573 0.017386477 2.0529134 -0.25173929 -0.81683522 0.52233773 0.013599933
-0.71984404 0.04006331 2.0420277 0.70739388 0.007142365 0.74062932 0.0034518403
-0.25838494 0.040201727 2.0449445 0.80569547 -0.42761138 0.43903232 0.032506164
-0.25365144 0.041559175 2.0387683 0.63776582 -0.57863247 0.52031612 0.017415263
0.18875749 0.04174833 2.0438485 -0.19553469 -0.86618733 0.46045503 0.0088582672
0.20993385 0.040619235 2.0457315 -0.21842057 -0.82564968 0.52323806 0.014123291
0.21830551 0.04064488 2.049211 -0.2842665 -0.75278568 0.5990895 0.01620416
0.23038854 0.036291085 2.0514612 -0.3627609 -0.63513488 0.6839 0.021593673
-0.7204138 0.053380147 2.0434999 0.45186001 -0.12909108 0.92555994 0.0026680371
-0.71687984 0.050657775 2.0410004 0.54959184 -0.17972383 0.82806551 0.0018957618
-0.49106839 0.055940535 2.0400002 0.85009468 0.98803818 -0.043268926 0.0020485371
-0.25789976 0.04516425 2.048378 0.75523341 -0.45337924 0.49238864 0.0169151
-0.24884984 0.053847801 2.0473359 0.5111106 -0.63447428 0.58176756 0.01431721
-0.23117727 0.05587671 2.0407445 0.23275492 -0.69852829 0.67706263 0.010562477
-0.21526715 0.057109036 2.0386186 0.082097702 -0.66336995 0.7459982 0.0094829667
-0.18597324 0.056274384 2.0400088 -0.20221154 -0.54823023 0.8119927 0.022359213
-0.17200959 0.054554127 2.045413 -0.22648071 -0.57650673 0.78510624 0.0077602412
-0.15737131 0.050820522 2.0466495 0.0469658 -0.61208856 0.78985429 0.015396793
-0.14229816 0.052965451 2.0437424 0.26423407 -0.57097065 0.77883929 0.013304939
-0.12837999 0.056657512 2.0419188 0.37399617 -0.45706508 0.80712092 0.025931833
-0.12138995 0.057594128 2.039037 0.39774171 -0.4319534 0.80977041 0.027686417
0.15897721 0.055907402 2.0441465 -0.48359972 -0.66252577 0.57720733 0.0065491083
0.17210102 0.049580276 2.0476325 -0.38735744 -0.6900661 0.61179388 0.0016271916
0.18759158 0.046565969 2.0514991 -0.1804498 -0.79654288 0.57715744 0.0095681446
0.20236416 0.045405164 2.0521207 -0.13691673 -0.81414199 0.56814355 0.0099867713
0.21039404 0.044950131 2.0534191 -0.14967826 -0.77583778 0.62410402 0.01234486
-0.72094268 0.061395567 2.0450001 0.31658015 -0.1875612 1.0372754 0.0026680371
-0.23055726 0.062726833 2.0475795 0.24380502 -0.71609479 0.65418226 0.0050714375
-0.21639964 0.064830661 2.0464134 0.15344042 -0.67672712 0.72038966 0.01715162
-0.19977838 0.068438523 2.0450687 0.043849755 -0.59616733 0.80381465 0.046917595
-0.1876218 0.068216421 2.0478692 -0.15894365 -0.47622603 0.86889958 0.051238235
-0.17495082 0.063580476 2.0524189 -0.23782298 -0.36873516 0.89934456 0.052886814
-0.15798324 0.061360266 2.0549951 0.030367542 -0.42449099 0.91833979 0.066933215
-0.14096947 0.066169605 2.051214 0.33376622 -0.22408569 0.92108858 0.021790098
-0.1271271 0.065954454 2.0459342 0.39544579 -0.21039385 0.9028852 0.029195074
-0.11514866 0.067047812 2.040967 0.45178762 -0.1798104 0.89266831 0.034957342
0.13552637 0.07257285 2.040334 -0.51365775 -0.61190104 0.6017102 0.0083066151
0.14324042 0.071294762 2.0450065 -0.51785469 -0.59218794 0.61774981 0.0075202505
0.1559342 0.063335709 2.0487378 -0.51155198 -0.6004774 0.61490327 0.0048081307
-0.19764782 0.085501894 2.0553772 0.35942808 -0.18024118 0.92424059 0.067749411
-0.18919507 0.082821317 2.0524969 0.18282001 -0.065311559 0.99735361 0.079983167
-0.17321198 0.085550316 2.0515361 0.030846072 0.24976358 0.96829957 0.031144628
-0.16270767 0.088828586 2.049144 -0.014421608 0.3593981 0.9336974 0.026392115
-0.14116642 0.083461329 2.0507507 0.28203392 0.24749368 0.92807043 0.03241707
-0.12827994 0.082409196 2.043139 0.39849064 0.22672263 0.89083087 0.018348366
-0.11526835 0.08195892 2.0394607 0.3606624 0.28559217 0.8883177 0.028451191
0.12010041 0.089176759 2.0460558 -0.43419039 -0.72047335 0.54350317 0.011007195
0.12713625 0.085029177 2.0476048 -0.45853099 -0.68574101 0.56637979 0.011906079
0.14120522 0.080524646 2.0512207 -0.47209752 -0.59054381 0.65490645 0.010295498
0.14970784 0.075567506 2.0542471 -0.54654664 -0.56303447 0.6199252 0.0060062241
-0.19532129 0.098976217 2.0524044 0.43039092 0.047394451 0.90142524 0.010476345
-0.18714327 0.098660737 2.0480635 0.3276642 0.1328585 0.93652529 0.020993484
-0.1736699 0.098160446 2.0447304 0.17348579 0.30981645 0.93551826 0.031633042
-0.15783682 0.097454958 2.0449357 0.085731827 0.43306094 0.89770663 0.028721416
-0.14471635 0.097483851 2.04544 0.23761104 0.47933424 0.84504455 0.033215825
0.088620104 0.10550233 2.0500164 -0.6078155 -0.59726816 0.53521645 0.029515136
0.097541459 0.099668108 2.047873 -0.47088897 -0.74183249 0.47854105 0.015831809
0.11991623 0.093915619 2.0538073 -0.37850946 -0.69960099 0.60870522 0.014796716
-0.19527332 0.11235589 2.0529125 0.47449195 0.081848912 0.88307011 0.0072113737
-0.18591695 0.11397851 2.0483389 0.45977458 0.3889268 0.85745007 0.099953651
-0.17421333 0.1123573 2.0425007 0.40394387 0.66568249 0.64288968 0.069119968
-0.14522271 0.10667123 2.042325 0.0031546792 0.51291353 0.88297957 0.064293936
0.07853473 0.1165899 2.044208 0.66984719 0.46361795 -0.57999575 0.0086028557
-0.19558387 0.11990538 2.051527 0.59046024 0.46154502 0.66636354 0.082699694
-0.19032159 0.11918046 2.0481005 -0.56185079 -0.49189517 -0.68511122 0.077557616
0.069713794 0.12868057 2.0418415 0.6308372 0.45159969 -0.63096595 0.00626165
0.080608398 0.12409838 2.0511792 0.66656381 0.39066863 -0.63559526 0.0079696774
0.055223487 0.14611761 2.0411179 0.71100384 0.39748317 -0.58017248 0.016707482
0.066218689 0.14137946 2.0479913 -0.5800736 -0.44672686 0.68117684 0.0034821832
0.077443428 0.13664573 2.0535667 -0.5805167 -0.34865129 0.73632592 0.015139719
0.052680884 0.15714806 2.0466228 0.77571619 0.35966185 -0.51944232 0.018066404
0.060838394 0.15213297 2.0511484 -0.58994055 -0.48222455 0.64784878 0.008171685
0.051157966 0.16875245 2.053591 0.84548885 0.30036643 -0.44187918 0.022759151
0.049326576 0.19210297 2.0507357 0.9683255 -0.18367554 -0.34359276 0.022231262
0.050156079 0.2023192 2.0450001 0.99969965 6.5857421e-06 -0.024507185 0
-1.0841224 0.35529062 2.0530376 0.20290427 0.52048975 0.83328414 0.027843285
-1.073055 0.35761684 2.0489678 -0.0097774556 0.65634465 0.7555424 0.036192298
-1.0628445 0.35719162 2.0515282 -0.34590733 0.65930378 0.67027557 0.051537637
-1.0960041 0.36827806 2.0507033 0.49376252 0.38882703 0.77940232 0.012183541
-1.086385 0.3646585 2.0467291 0.36958364 0.52902085 0.77043128 0.023318101
-1.0732683 0.36411268 2.0425398 -0.09968473 -0.70013577 -0.7088393 0.035563018
-1.0564253 0.36459413 2.0459344 0.48089984 -0.71566933 -0.5095706 0.053460877
-1.0492398 0.37090406 2.0483584 0.69578761 -0.63095671 -0.34881833 0.0490731
-1.1018908 0.38138774 2.0502727 0.64484441 0.28748733 0.71023262 0.0051371194
-1.0917597 0.37748283 2.0426514 0.61772108 0.44107494 0.69219279 0.0087369177
-1.0440001 0.38153565 2.0447352 0.77464324 -0.62019682 -0.13102937 0.024794264
-1.0377054 0.38971677 2.0419979 0.75145477 -0.66457123 -0.0082081221 0.020130394
-1.0333178 0.39767778 2.0539682 0.78441125 -0.61446202 -0.11536139 0.018820088
-0.99248129 0.40829954 2.0420091 0.20610535 -0.9689737 -0.14467709 0.0124489
-0.96854824 0.41235447 2.0520582 0.36988777 -0.88886327 -0.274021 0.037248868
-0.95664233 0.41837692 2.0489635 0.7484172 -0.63183385 -0.20822887 0.058502443
-0.95097721 0.42739642 2.0473349 0.9354732 -0.31565922 -0.15998979 0.038728021
-0.94948095 0.44335344 2.0453539 0.95180881 0.22251709 -0.239114 0.040676411
-0.98093069 0.46197793 2.0437474 -0.3297191 -0.79509497 0.56097966 0.0074857404
-0.97359914 0.46385029 2.0511804 -0.42156339 -0.78329188 0.51983738 0.012455398
-0.95530319 0.45745343 2.0501404 -0.79107654 -0.64189005 0.21634316 0.036625452
-0.97827297 0.46651053 2.0493515 -0.88580596 -0.3578817 1.0211921 0.011648078
-0.81592113 0.48982105 2.0485306 -0.519265 -0.83246356 -0.23863846 0.011301021
-0.80454504 0.48221779 2.0480001 -0.49166316 -0.84436864 -0.30022341 0.0049209539
-0.9060567 0.51006871 2.0516007 0.23196472 0.84191871 0.71249545 0.020384107
-0.89206177 0.50810248 2.0503399 0.17525487 0.84107125 0.75156522 0.026256852
-0.87715662 0.50659955 2.0496891 0.15423867 0.81331331 0.79958719 0.02325096
-0.86198282 0.50406128 2.0506322 0.05063574 0.81567287 0.60557199 0.08402095
-0.84753472 0.50432676 2.0468163 -0.25313342 -0.69633192 -0.67651892 0.08757177
-0.83163655 0.50006306 2.0435574 -0.45308188 -0.74506515 -0.49921393 0.041646998
-0.82176614 0.49614063 2.0422239 -0.48778847 -0.76614875 -0.45844948 0.037248727
-0.91841274 0.51516426 2.0520091 0.45953903 0.34140247 0.82504362 0.044259656
-0.90734631 0.51971352 2.0457718 0.24461649 0.26807657 0.94491428 0.047266237
-0.89070266 0.51856631 2.0445158 0.074215509 0.28961334 0.96643943 0.032885022
-0.87714231 0.51838064 2.0438256 0.076844968 0.20144689 0.98438597 0.046070989
-0.86398822 0.51839077 2.0435069 0.11337441 0.13162158 0.99019086 0.040927324
-0.84870875 0.51727152 2.0424702 0.31589642 0.25378087 0.9269259 0.093106188
-0.90622073 0.53161412 2.0452452 0.30063322 -0.16729482 0.94685411 0.047706161
-0.89133281 0.53215998 2.0455186 -0.028617037 -0.20020805 0.98300326 0.045288909
-0.87718892 0.53325897 2.0467567 0.0058764033 -0.30423763 0.9544391 0.02917243
-0.86406976 0.53190136 2.046262 0.10962889 -0.26544356 0.95811468 0.029370116
-0.84791112 0.53159809 2.0436602 0.3054637 -0.22224146 0.92830586 0.023924451
-0.83673781 0.53923839 2.0419343 0.44123748 -0.27574641 0.8553322 0.0099260984
-0.90680289 0.54202878 2.0494261 0.30904785 -0.3917357 0.87729436 0.029616896
-0.89401227 0.54454744 2.0514586 -0.070513219 -0.47592536 0.8775751 0.014826789
-0.87814969 0.54195172 2.0518026 -0.017973175 -0.48241195 0.87759334 0.0092572607
-0.86222869 0.5420348 2.0516214 0.13535798 -0.43920779 0.88958228 0.0081059923
-0.8472954 0.54550368 2.0495729 0.34940752 -0.38968191 0.85314417 0.0081340186
-0.83336031 0.54936343 2.0442028 0.52134418 -0.29807922 0.79965508 0.0052680643
-0.84110522 0.55807787 2.0531545 0.5605256 -0.29526553 0.77376783 0.027279494
-0.83148807 0.56296289 2.0470963 0.6598599 -0.10603958 0.74421138 0.023408886
-0.7422716 0.58139145 2.0480084 0.11779103 -1.0236055 0.11041835 0.019518889
-0.73208857 0.58115721 2.0531604 0.35073215 -0.70476007 0.62912154 0.16899915
-0.71215951 0.57898951 2.0449023 0.67729163 -0.04830166 0.75757414 0.029128611
-0.84230536 0.60119236 2.0451517 -0.54276347 -0.7568242 -0.38840681 0.045264214
-0.834773 0.59525067 2.0403743 0.60906857 0.3415181 0.75577497 0.019859098
-0.71436167 0.59129733 2.0481298 0.6673817 -0.068592817 0.74571043 0.11985102
-0.60247195 0.58991146 2.0349469 0.035510033 -0.0022715684 1.0629873 0.13644014
-0.91856581 0.60795009 2.0410001 0.051315185 -0.99423414 0.3502146 0.0013176469
-0.91149753 0.60849309 2.0430002 -0.099630788 -0.99593639 0.32078716 0.0016897863
-0.89310598 0.60679466 2.0434723 -0.0063785869 -1.0013072 -0.017964682 0.0012681001
-0.87715393 0.60776854 2.0496628 -0.016679762 -1.000734 0.0014726243 0.0018547389
-0.86411107 0.60782766 2.0502236 -0.22961396 -0.96287286 -0.18102354 0.0213443
-0.84875548 0.60460132 2.0433319 -0.31383809 -0.93093818 -0.21666881 0.038519818
-0.83739001 0.60094881 2.0390913 0.55324429 0.73685169 0.42143968 0.061714981
-0.76122594 0.60698861 2.0401475 0.67323512 -0.72554463 0.26520866 0.03333905
-0.71408874 0.60495603 2.0419486 0.7091881 0.87581515 0.21437673 0.09490151
-0.078731336 -0.3903935 1.6807673 -0.26716757 -0.66908365 0.69468349 0.034219969
-1.1109022 -0.10290878 2.0660145 0.43012616 -0.73580545 0.55480862 0.027226619
-1.1002667 -0.099631295 2.0639246 0.25264624 -0.77313817 0.58709872 0.020958953
-1.0878425 -0.098087646 2.0622568 0.17369764 -0.75630111 0.6312589 0.022010826
-1.0738643 -0.096862659 2.0605416 0.17524686 -0.65007842 0.74018365 0.024036264
-1.0601349 -0.095833525 2.0576217 0.25759232 -0.53880543 0.80210227 0.020956395
-1.0685465 -0.084769502 2.0671253 0.32904086 -0.43414757 0.84071815 0.020077689
-1.0558276 -0.083186328 2.0615652 0.34918246 -0.39181942 0.85207915 0.0078827702
-1.0443834 -0.079256743 2.0576377 0.3364372 -0.40916529 0.84838498 0.0012413295
-1.0343072 -0.077362768 2.0552473 0.36157179 -0.41219109 0.83648294 0.002233631
