# .PCD v0.7 - Point Cloud Data file format
VERSION 0.7
FIELDS x y z
SIZE 4 4 4
TYPE F F F
COUNT 1 1 1
WIDTH 1435
HEIGHT 1
VIEWPOINT 0 0 0 1 0 0 0
POINTS 1435
DATA ascii
-1.0036852 -0.10578277 1.8960001
-0.99822807 -0.10572697 1.8950001
-0.99330014 -0.10572697 1.8950001
-0.98785073 -0.10567118 1.8940001
-0.98292553 -0.10567118 1.8940001
-0.97748387 -0.10561539 1.8930001
-0.97256124 -0.10561539 1.8930001
-0.96712744 -0.10555959 1.8920001
-0.96271586 -0.10561539 1.8930001
-0.95779324 -0.10561539 1.8930001
-0.95337397 -0.10567118 1.8940001
-0.94894946 -0.10572697 1.8950001
-0.94451982 -0.10578277 1.8960001
-0.95990741 -0.10807026 1.937
-0.95585632 -0.10818185 1.9390001
-0.95179474 -0.10829344 1.9410001
-0.96235561 -0.1100788 1.973
-0.95771015 -0.11013459 1.9740001
-0.95354199 -0.11024617 1.9760001
-0.94840348 -0.11024617 1.9760001
-0.94374239 -0.11030197 1.9770001
-0.93860126 -0.11030197 1.9770001
-0.92590564 -0.10940929 1.9610001
-0.91939747 -0.10924191 1.9580001
-0.91290486 -0.10907453 1.955
-0.9059636 -0.10885136 1.9510001
-0.89811957 -0.1085166 1.9450001
-0.89214337 -0.10840502 1.9430001
-0.86015379 -0.10511325 1.8840001
-0.85616243 -0.10522484 1.886
-0.8304956 -0.10265838 1.84
-0.82705706 -0.10282576 1.8430001
-0.80486441 -0.10064985 1.8040001
-0.80017316 -0.10064985 1.8040001
-0.79548198 -0.10064985 1.8040001
-0.80350298 -0.10226783 1.8330001
-0.7991721 -0.10232363 1.8340001
-0.78747249 -0.10143095 1.8180001
-0.78360593 -0.10154252 1.8200001
-0.79984277 -0.10427637 1.8690001
-0.79200512 -0.10388582 1.8620001
-0.78800851 -0.1039974 1.8640001
-0.79534566 -0.10561539 1.8930001
-0.79668629 -0.10645228 1.9080001
-0.79172462 -0.10645228 1.9080001
-0.78635061 -0.10639648 1.9070001
-0.78139156 -0.10639648 1.9070001
-0.77154672 -0.10572697 1.8950001
-0.76540524 -0.10555959 1.8920001
-0.75847542 -0.10528063 1.8870001
-0.7515716 -0.10500167 1.8820001
-0.73675895 -0.10360686 1.8570001
-0.73153573 -0.10355106 1.8560001
-0.7149629 -0.10187729 1.8260001
-0.7109924 -0.10198887 1.8280001
-0.70469338 -0.1017657 1.8240001
-0.69918263 -0.10165412 1.8220001
-0.69406348 -0.10159832 1.8210001
-0.68932807 -0.10159832 1.8210001
-0.68534452 -0.10170991 1.8230001
-0.68172395 -0.10187729 1.8260001
-0.67808777 -0.10204466 1.8290001
-0.67517221 -0.10232363 1.8340001
-0.67186517 -0.1025468 1.8380001
-0.6656338 -0.10232363 1.8340001
-0.66158527 -0.10243521 1.8360001
-0.65752625 -0.1025468 1.8380001
-0.65381205 -0.10271417 1.8410001
-0.65889573 -0.10427637 1.8690001
-0.65403551 -0.10427637 1.8690001
-0.6460492 -0.10377423 1.8600001
-0.6405229 -0.10366265 1.858
-0.63534915 -0.10360686 1.8570001
-0.62984103 -0.10349527 1.8550001
-0.62434328 -0.10338368 1.853
-0.61852169 -0.10321631 1.8500001
-0.6130473 -0.10310472 1.848
-0.61021656 -0.10343948 1.8540001
-0.60441566 -0.1032721 1.8510001
-0.59798253 -0.10299314 1.8460001
-0.59125412 -0.10265838 1.84
-0.58519435 -0.10243521 1.8360001
-0.57947153 -0.10226783 1.8330001
-0.5740779 -0.10215625 1.8310001
-0.56682897 -0.10170991 1.8230001
-0.56239671 -0.1017657 1.8240001
-0.5579592 -0.10182149 1.825
-0.55533528 -0.10221204 1.8320001
-0.55117238 -0.10232363 1.8340001
-0.54729688 -0.10249101 1.8370001
-0.54370117 -0.10271417 1.8410001
-0.53979194 -0.10288155 1.8440001
-0.53586709 -0.10304894 1.8470001
-0.53192663 -0.10321631 1.8500001
-0.5276857 -0.10332789 1.8520001
-0.52343428 -0.10343948 1.8540001
-0.51917249 -0.10355106 1.8560001
-0.51462322 -0.10360686 1.8570001
-0.51034319 -0.10371844 1.8590001
-0.50578088 -0.10377423 1.8600001
-0.50121337 -0.10383002 1.8610001
-0.49664065 -0.10388582 1.8620001
-0.49232683 -0.1039974 1.8640001
-0.48800266 -0.10410899 1.8660001
-0.48340914 -0.10416478 1.8670001
-0.47906679 -0.10427637 1.8690001
-0.47471395 -0.10438795 1.8710001
-0.47035074 -0.10449954 1.8730001
-0.46597716 -0.10461112 1.8750001
-0.46110132 -0.10461112 1.8750001
-0.45671213 -0.10472271 1.8770001
-0.45231247 -0.10483429 1.8790001
-0.44766438 -0.10489009 1.8800001
-0.44277555 -0.10489009 1.8800001
-0.43788666 -0.10489009 1.8800001
-0.43345845 -0.10500167 1.8820001
-0.42833668 -0.10494588 1.881
-0.42344522 -0.10494588 1.881
-0.4187763 -0.10500167 1.8820001
-0.41366234 -0.10494588 1.881
-0.40877089 -0.10494588 1.881
-0.40366474 -0.10489009 1.8800001
-0.39856377 -0.10483429 1.8790001
-0.39304897 -0.10466691 1.876
-0.38796362 -0.10461112 1.8750001
-0.38247484 -0.10444374 1.8720001
-0.37700167 -0.10427637 1.8690001
-0.3737343 -0.10472271 1.8770001
-0.36806723 -0.10449954 1.8730001
-0.35970616 -0.10349527 1.8550001
-0.35392579 -0.10321631 1.8500001
-0.34836009 -0.10299314 1.8460001
-0.34281522 -0.10276997 1.8420001
-0.33710766 -0.10249101 1.8370001
-0.33178788 -0.10232363 1.8340001
-0.32648373 -0.10215625 1.8310001
-0.3213709 -0.10204466 1.8290001
-0.31644154 -0.10198887 1.8280001
-0.31151742 -0.10193308 1.8270001
-0.30676642 -0.10193308 1.8270001
-0.30201539 -0.10193308 1.8270001
-0.29742706 -0.10198887 1.8280001
-0.29283354 -0.10204466 1.8290001
-0.28823483 -0.10210045 1.83
-0.28363088 -0.10215625 1.8310001
-0.27871716 -0.10210045 1.83
-0.27485657 -0.10243521 1.8360001
-0.27008212 -0.10243521 1.8360001
-0.26530769 -0.10243521 1.8360001
-0.25953996 -0.10204466 1.8290001
-0.25436586 -0.10187729 1.8260001
-0.24975412 -0.10193308 1.8270001
-0.24460079 -0.1017657 1.8240001
-0.23933156 -0.10154252 1.8200001
-0.23060282 -0.099812955 1.789
-0.22595061 -0.099812955 1.789
-0.22067991 -0.099533997 1.784
-0.21555631 -0.099310823 1.7800001
-0.20950553 -0.098641314 1.7680001
-0.20421255 -0.098306559 1.7620001
-0.19917735 -0.098083392 1.7580001
-0.19416296 -0.097860217 1.7540001
-0.18895319 -0.097525463 1.748
-0.18388012 -0.097246498 1.743
-0.17903887 -0.097079128 1.7400001
-0.17411289 -0.096855953 1.7360001
-0.16920772 -0.096632786 1.7320001
-0.16441847 -0.096465401 1.7290001
-0.1596448 -0.096298024 1.7260001
-0.15488674 -0.096130647 1.723
-0.15014428 -0.095963269 1.72
-0.14541744 -0.095795892 1.7170001
-0.14070618 -0.095628515 1.7140001
-0.13593103 -0.09540534 1.71
-0.13117671 -0.095182173 1.7060001
-0.12651746 -0.095014796 1.7030001
-0.12187382 -0.094847418 1.7
-0.11731488 -0.094735831 1.6980001
-0.11090462 -0.093062058 1.6680001
-0.10381985 -0.090662979 1.6250001
-0.082561217 -0.082126707 1.4720001
-0.076379903 -0.07967183 1.4280001
-0.072412029 -0.079392873 1.4230001
-0.068518437 -0.079169698 1.419
-0.064737029 -0.079058111 1.4170001
-0.060922932 -0.078890733 1.414
-0.057124432 -0.078723356 1.411
-0.053417318 -0.078667566 1.4100001
-0.049680114 -0.078555979 1.4080001
-0.045985993 -0.078500189 1.4070001
-0.042327158 -0.078500189 1.4070001
-0.038695809 -0.078555979 1.4080001
-0.035059255 -0.078611769 1.409
-0.032041397 -0.080229759 1.4380001
-0.028675891 -0.081289813 1.457
-0.025416547 -0.083019383 1.488
-0.022271106 -0.085809022 1.5380001
-0.018580494 -0.087259628 1.5640001
-0.014689703 -0.088319682 1.5830001
-0.010887112 -0.090941936 1.6300001
-0.0067585036 -0.092448339 1.6570001
-0.0025072105 -0.094624251 1.6960001
0.0019020321 -0.094568454 1.6950001
0.0064624227 -0.096855953 1.7360001
0.010995775 -0.097023331 1.7390001
0.015482266 -0.096800163 1.7350001
0.020236051 -0.097971804 1.756
0.024887189 -0.098306559 1.7620001
0.029586256 -0.098697104 1.7690001
0.034592286 -0.099868752 1.7900001
0.039290942 -0.099980332 1.7920001
0.044024531 -0.10014772 1.7950001
0.048746593 -0.1002593 1.7970001
0.053508785 -0.10042667 1.8000001
0.058254249 -0.10053826 1.802
0.063045055 -0.10070564 1.8050001
0.067813918 -0.10081723 1.807
0.072633319 -0.1009846 1.8100001
0.077468328 -0.10115198 1.8130001
0.082273602 -0.10126357 1.8150001
0.087089285 -0.10137515 1.817
0.091864832 -0.10143095 1.8180001
0.095901743 -0.10070564 1.8050001
0.10037263 -0.10048247 1.8010001
0.10482272 -0.1002593 1.7970001
0.10925201 -0.10003613 1.7930001
0.11359695 -0.099757165 1.7880001
0.11791588 -0.099478208 1.7830001
0.12214008 -0.099143445 1.7770001
0.12647575 -0.098920278 1.7730001
0.13064273 -0.098585524 1.7670001
0.13485506 -0.098306559 1.7620001
0.13912052 -0.098083392 1.7580001
0.14336516 -0.097860217 1.7540001
0.14767334 -0.09769284 1.751
0.1521398 -0.09763705 1.7500001
0.15660104 -0.097581252 1.7490001
0.16114923 -0.097581252 1.7490001
0.16560267 -0.097525463 1.748
0.17024562 -0.097581252 1.7490001
0.17469385 -0.097525463 1.748
0.17811151 -0.096911743 1.7370001
0.18399532 -0.09763705 1.7500001
0.18714547 -0.096911743 1.7370001
0.19144179 -0.096800163 1.7350001
0.19708298 -0.097358085 1.7450001
0.20023425 -0.096688569 1.733
0.20013329 -0.094512664 1.6940001
0.20357251 -0.094066322 1.6860001
0.2028998 -0.09177883 1.6450001
0.20717753 -0.09177883 1.6450001
0.20669912 -0.089714497 1.608
0.20970036 -0.089212365 1.5990001
0.21078235 -0.087929137 1.5760001
0.2117447 -0.086645909 1.5530001
0.21522743 -0.086422734 1.549
0.21883088 -0.086255364 1.5460001
0.22241874 -0.086087979 1.5430001
0.22628449 -0.086032189 1.5420001
0.23014504 -0.085976399 1.5410001
0.23400037 -0.085920602 1.5400001
0.23800506 -0.085920602 1.5400001
0.24200977 -0.085920602 1.5400001
0.24617422 -0.085976399 1.5410001
0.25001916 -0.085920602 1.5400001
0.25418881 -0.085976399 1.5410001
0.25869873 -0.086143769 1.544
0.26339445 -0.086366944 1.5480001
0.26828372 -0.086645909 1.5530001
0.27337432 -0.086980656 1.559
0.28401268 -0.089044988 1.5960001
0.28852409 -0.089156568 1.598
0.29890686 -0.091053523 1.6320001
0.30259353 -0.090886146 1.6290001
0.31568232 -0.0935084 1.6760001
0.31774923 -0.092838883 1.664
0.32827017 -0.094624251 1.6960001
0.33307281 -0.094735831 1.6980001
0.33868095 -0.095070593 1.7040001
0.34572974 -0.095795892 1.7170001
0.35284618 -0.096521199 1.7300001
0.35961705 -0.097134911 1.7410001
0.36539942 -0.097469673 1.7470001
0.37333053 -0.098362356 1.7630001
0.38263103 -0.099589787 1.7850001
0.39031029 -0.10037089 1.7990001
0.40135571 -0.10198887 1.8280001
0.40788662 -0.10243521 1.8360001
0.41760579 -0.10366265 1.858
0.42425632 -0.10410899 1.8660001
0.43324807 -0.10511325 1.8840001
0.43814731 -0.10511325 1.8840001
0.44281143 -0.10505746 1.8830001
0.39855295 -0.08960291 1.6060001
0.39696166 -0.088319682 1.5830001
0.39930463 -0.087929137 1.5760001
0.4023791 -0.087705962 1.572
0.40517414 -0.087426998 1.567
0.40768206 -0.087092251 1.5610001
0.41015878 -0.086757489 1.5550001
0.41580066 -0.087092251 1.5610001
0.41528749 -0.086143769 1.544
0.42093202 -0.086478531 1.5500001
0.42331767 -0.086143769 1.544
0.4256722 -0.085809022 1.5380001
0.42799541 -0.08547426 1.5320001
0.43000555 -0.085083716 1.5250001
0.4291335 -0.084135234 1.508
0.43104476 -0.08374469 1.501
0.43176058 -0.083130978 1.4900001
0.43388101 -0.082796216 1.4840001
0.43420041 -0.082126707 1.4720001
0.43594524 -0.081736155 1.465
0.43795389 -0.081401408 1.4590001
0.43962848 -0.081010848 1.452
0.44157213 -0.080676101 1.4460001
0.44348451 -0.080341339 1.4400001
0.44567627 -0.080062382 1.4350001
0.44784206 -0.079783417 1.4300001
0.45029762 -0.07956025 1.4260001
0.45241395 -0.079281285 1.4210001
0.45418334 -0.078946531 1.4150001
0.4559215 -0.078611769 1.409
0.45762846 -0.078277022 1.4030001
0.45930421 -0.07794226 1.3970001
0.46094874 -0.077607505 1.391
0.46289608 -0.07732854 1.386
0.46414426 -0.076937996 1.3790001
0.46603435 -0.076659031 1.3740001
0.46858203 -0.076491654 1.3710001
0.45871636 -0.074315742 1.332
0.46252716 -0.074371532 1.3330001
0.46494481 -0.074204154 1.33
0.45607704 -0.072251417 1.2950001
0.45873502 -0.072139829 1.2930001
0.45959571 -0.071749277 1.286
0.45826009 -0.071023978 1.273
0.45685688 -0.070298679 1.2600001
0.45684677 -0.06979654 1.251
0.45752546 -0.069405995 1.2440001
0.45853809 -0.069071233 1.238
0.45951957 -0.068736486 1.2320001
0.46122095 -0.068513311 1.228
0.46290153 -0.068290144 1.2240001
0.46494213 -0.068122767 1.2210001
0.4665837 -0.067899592 1.217
0.4682045 -0.067676425 1.2130001
0.47019309 -0.06750904 1.21
0.47216603 -0.067341663 1.207
0.47412348 -0.067174293 1.2040001
0.47606525 -0.067006916 1.2010001
0.47839034 -0.066895321 1.199
0.48070511 -0.066783741 1.197
0.48300949 -0.066672154 1.1950001
0.48530343 -0.066560574 1.1930001
0.487587 -0.066448987 1.1910001
0.48986015 -0.066337399 1.189
0.49212289 -0.066225812 1.187
0.49437526 -0.066114232 1.1850001
0.49703696 -0.066058435 1.184
0.49884874 -0.065891065 1.1810001
0.50106984 -0.06577947 1.179
0.50370824 -0.06572368 1.1780001
0.50634134 -0.06566789 1.177
0.50853652 -0.065556303 1.1750001
0.51115656 -0.065500513 1.174
0.51420951 -0.065500513 1.174
0.51726246 -0.065500513 1.174
0.52075857 -0.065556303 1.1750001
0.52381414 -0.065556303 1.1750001
0.52776647 -0.06566789 1.177
0.53172916 -0.06577947 1.179
0.53615594 -0.065946855 1.182
0.54105449 -0.066170022 1.1860001
0.54643261 -0.066448987 1.1910001
0.55137533 -0.066672154 1.1950001
0.55633891 -0.066895321 1.199
0.56178987 -0.067174293 1.2040001
0.56773603 -0.06750904 1.21
0.57324159 -0.067788005 1.215
0.57877314 -0.06806697 1.22
0.58385372 -0.068290144 1.2240001
0.58847553 -0.068457521 1.2270001
0.59311283 -0.068624891 1.23
-1.0365556 -0.10069274 1.8930001
-1.0316331 -0.10069274 1.8930001
-1.0250833 -0.10053317 1.8900001
-1.0196286 -0.10047997 1.8890001
-1.0141792 -0.10042678 1.8880001
-1.0087351 -0.10037358 1.8870001
-1.0038279 -0.10037358 1.8870001
-1.0042146 -0.10090551 1.8970001
-0.99875486 -0.10085232 1.8960001
-0.9938243 -0.10085232 1.8960001
-0.98837233 -0.10079912 1.8950001
-0.98344451 -0.10079912 1.8950001
-0.97800016 -0.10074593 1.8940001
-0.97307497 -0.10074593 1.8940001
-0.96814972 -0.10074593 1.8940001
-0.96322441 -0.10074593 1.8940001
-0.95829922 -0.10074593 1.8940001
-0.95438075 -0.10085232 1.8960001
-0.94945019 -0.10085232 1.8960001
-0.96345007 -0.10287362 1.9340001
-0.95990741 -0.10303319 1.937
-0.95585632 -0.10313958 1.9390001
-0.95179474 -0.10324596 1.9410001
-0.96333122 -0.1050545 1.9750001
-0.95868045 -0.10510769 1.9760001
-0.95450705 -0.10521407 1.978
-0.94984335 -0.10526726 1.9790001
-0.94517446 -0.10532045 1.9800001
-0.94050032 -0.10537364 1.9810001
-0.9372375 -0.10558642 1.9850001
-0.93160599 -0.10553322 1.9840001
-0.92551279 -0.10542684 1.9820001
-0.91943002 -0.10532045 1.9800001
-0.89811957 -0.10345872 1.9450001
-0.89214337 -0.10335235 1.9430001
-0.8720243 -0.101597 1.9100001
-0.85616243 -0.10032039 1.886
-0.83275235 -0.09813951 1.845
-0.82795459 -0.09813951 1.845
-0.82226443 -0.09803313 1.8430001
-0.81614113 -0.097873554 1.84
-0.81091541 -0.097820364 1.8390001
-0.80569476 -0.097767167 1.8380001
-0.80135089 -0.097820364 1.8390001
-0.80003393 -0.098245904 1.8470001
-0.79609197 -0.098352283 1.8490001
-0.80241048 -0.099735282 1.8750001
-0.80221349 -0.10032039 1.886
-0.79984558 -0.10063954 1.8920001
-0.79618597 -0.10079912 1.8950001
-0.79668629 -0.10149062 1.9080001
-0.79172462 -0.10149062 1.9080001
-0.78676301 -0.10149062 1.9080001
-0.78180128 -0.10149062 1.9080001
-0.77683961 -0.10149062 1.9080001
-0.76621431 -0.10074593 1.8940001
-0.75927931 -0.10047997 1.8890001
-0.75197095 -0.10016081 1.8830001
-0.73834592 -0.098990589 1.8610001
-0.73271817 -0.098884203 1.8590001
-0.71613753 -0.097288445 1.8290001
-0.71371502 -0.09760759 1.835
-0.7070114 -0.097341627 1.83
-0.70110136 -0.097182058 1.8270001
-0.69596922 -0.097128861 1.8260001
-0.69159937 -0.097182058 1.8270001
-0.6876002 -0.097288445 1.8290001
-0.68396401 -0.097448021 1.8320001
-0.68031216 -0.09760759 1.835
-0.67738104 -0.097873554 1.84
-0.67442393 -0.09813951 1.845
-0.67470729 -0.098884203 1.8590001
-0.67203516 -0.099203363 1.8650001
-0.66897398 -0.099469319 1.8700001
-0.66482139 -0.099575706 1.8720001
-0.65995336 -0.099575706 1.8720001
-0.65508533 -0.099575706 1.8720001
-0.64813322 -0.099256545 1.8660001
-0.64259136 -0.099150166 1.8640001
-0.63705981 -0.099043779 1.8620001
-0.63153869 -0.0989374 1.8600001
-0.62569106 -0.098777823 1.8570001
-0.61985898 -0.098618247 1.8540001
-0.61404252 -0.098458663 1.8510001
-0.61054569 -0.098671436 1.8550001
-0.60474223 -0.09851186 1.8520001
-0.59830648 -0.098245904 1.8470001
-0.59189683 -0.09797994 1.8420001
-0.58583182 -0.097767167 1.8380001
-0.57978767 -0.097554401 1.8340001
-0.57470495 -0.097501211 1.8330001
-0.56745082 -0.097075671 1.825
-0.56301337 -0.097128861 1.8260001
-0.55857068 -0.097182058 1.8270001
-0.55472898 -0.097341627 1.83
-0.55207396 -0.097713977 1.8370001
-0.54819065 -0.097873554 1.84
-0.54429179 -0.09803313 1.8430001
-0.54037738 -0.098192707 1.8460001
-0.53644735 -0.098352283 1.8490001
-0.5325017 -0.09851186 1.8520001
-0.52825552 -0.098618247 1.8540001
-0.52371663 -0.098671436 1.8550001
-0.51945221 -0.098777823 1.8570001
-0.51490033 -0.098831013 1.858
-0.51034319 -0.098884203 1.8590001
-0.50578088 -0.0989374 1.8600001
-0.50148273 -0.099043779 1.8620001
-0.49690735 -0.099096969 1.863
-0.49259096 -0.099203363 1.8650001
-0.4882642 -0.099309742 1.8670001
-0.48366806 -0.099362932 1.868
-0.47932312 -0.099469319 1.8700001
-0.47496769 -0.099575706 1.8720001
-0.47060186 -0.099682085 1.8740001
-0.46597716 -0.099735282 1.8750001
-0.46159315 -0.099841662 1.8770001
-0.45719874 -0.099948049 1.8790001
-0.45255321 -0.10000124 1.8800001
-0.44814062 -0.10010763 1.8820001
-0.44324657 -0.10010763 1.8820001
-0.4383525 -0.10010763 1.8820001
-0.43368879 -0.10016081 1.8830001
-0.42879215 -0.10016081 1.8830001
-0.42389548 -0.10016081 1.8830001
-0.41922134 -0.100214 1.8840001
-0.41432211 -0.100214 1.8840001
-0.40942284 -0.100214 1.8840001
-0.40430889 -0.10016081 1.8830001
-0.39920011 -0.10010763 1.8820001
-0.39388704 -0.10000124 1.8800001
-0.38858438 -0.099894859 1.8780001
-0.38308778 -0.099735282 1.8750001
-0.37760681 -0.099575706 1.8720001
-0.37194228 -0.099362932 1.868
-0.36629862 -0.099150166 1.8640001
-0.36048183 -0.098884203 1.8590001
-0.35469103 -0.098618247 1.8540001
-0.34911495 -0.09840548 1.8500001
-0.34355965 -0.098192707 1.8460001
-0.33802521 -0.09797994 1.8420001
-0.33251151 -0.097767167 1.8380001
-0.32737526 -0.097660787 1.8360001
-0.32224944 -0.097554401 1.8340001
-0.31730708 -0.097501211 1.8330001
-0.31236997 -0.097448021 1.8320001
-0.30760595 -0.097448021 1.8320001
-0.30284193 -0.097448021 1.8320001
-0.29824057 -0.097501211 1.8330001
-0.29379416 -0.09760759 1.835
-0.28917986 -0.097660787 1.8360001
-0.28471521 -0.097767167 1.8380001
-0.27932638 -0.097554401 1.8340001
-0.27545539 -0.097873554 1.84
-0.27111185 -0.09803313 1.8430001
-0.26472971 -0.097448021 1.8320001
-0.25996569 -0.097448021 1.8320001
-0.25492305 -0.097341627 1.83
-0.25002751 -0.097288445 1.8290001
-0.24473488 -0.097075671 1.825
-0.23959458 -0.096916094 1.8220001
-0.23472764 -0.096862905 1.8210001
-0.22620322 -0.095267139 1.7910001
-0.22105101 -0.095054366 1.7870001
-0.21616182 -0.094947986 1.7850001
-0.21341598 -0.095799059 1.8010001
-0.20409665 -0.093671374 1.761
-0.19917735 -0.093511797 1.7580001
-0.19416296 -0.093299031 1.7540001
-0.18884511 -0.092926681 1.7470001
-0.18356365 -0.092554338 1.7400001
-0.17862728 -0.092341572 1.7360001
-0.17371172 -0.092128806 1.7320001
-0.16881694 -0.091916032 1.728
-0.16403808 -0.091756456 1.725
-0.15927483 -0.091596879 1.7220001
-0.15452717 -0.091437303 1.7190001
-0.14979511 -0.091277726 1.7160001
-0.14499396 -0.09106496 1.7120001
-0.1403778 -0.090958573 1.71
-0.13561307 -0.090745807 1.7060001
-0.13094604 -0.09058623 1.7030001
-0.12636888 -0.090479843 1.7010001
-0.12173044 -0.090320267 1.6980001
-0.11724579 -0.090267077 1.697
-0.11030621 -0.088245772 1.659
-0.10362817 -0.086277664 1.6220001
-0.082280777 -0.078032888 1.4670001
-0.076272927 -0.075852007 1.4260001
-0.072310254 -0.075586043 1.4210001
-0.068421863 -0.075373277 1.4170001
-0.064645655 -0.07526689 1.4150001
-0.060879849 -0.075160511 1.4130001
-0.057083949 -0.075000934 1.4100001
-0.053341549 -0.074894547 1.4080001
-0.049644828 -0.07484135 1.4070001
-0.045953311 -0.074788161 1.406
-0.042297073 -0.074788161 1.406
-0.038668327 -0.07484135 1.4070001
-0.035034373 -0.074894547 1.4080001
-0.031372938 -0.074894547 1.4080001
-0.028577484 -0.077234998 1.452
-0.025399469 -0.079096727 1.4870001
-0.021691883 -0.079681836 1.498
-0.018212212 -0.081543565 1.5330001
-0.014680424 -0.084149979 1.582
-0.010713453 -0.085320204 1.6040001
-0.0067585036 -0.088139392 1.6570001
-0.0024554697 -0.088352159 1.6610001
0.0019020321 -0.09016069 1.6950001
0.006324687 -0.090373464 1.6990001
0.010983129 -0.092394762 1.7370001
0.015500112 -0.092394762 1.7370001
0.02017843 -0.093139447 1.751
0.024816567 -0.093458608 1.7570001
0.029502632 -0.093830951 1.7640001
0.034534309 -0.095054366 1.7870001
0.039225165 -0.095160753 1.789
0.043926425 -0.095267139 1.7910001
0.048638087 -0.095373526 1.7930001
0.053389877 -0.095533103 1.7960001
0.058124941 -0.095639482 1.7980001
0.062870413 -0.095745869 1.8000001
0.067663811 -0.095905446 1.8030001
0.072472811 -0.096065022 1.8060001
0.077254675 -0.096171401 1.8080001
0.082092285 -0.096330985 1.8110001
0.086897567 -0.096437365 1.8130001
0.091662712 -0.096490562 1.8140001
0.095742352 -0.095852248 1.802
0.10026117 -0.095692679 1.7990001
0.10470605 -0.095479906 1.7950001
0.10919107 -0.095320329 1.7920001
0.11359695 -0.095107563 1.7880001
0.11791588 -0.094841599 1.7830001
0.12220882 -0.094575644 1.7780001
0.12654708 -0.09436287 1.774
0.13086455 -0.094150104 1.7700001
0.13516119 -0.09393733 1.766
0.13943706 -0.093724564 1.7620001
0.14377384 -0.093564987 1.7590001
0.14817937 -0.093458608 1.7570001
0.15274835 -0.093458608 1.7570001
0.1572278 -0.093405411 1.756
0.1617942 -0.093405411 1.756
0.16636059 -0.093405411 1.756
0.17092699 -0.093405411 1.756
0.17559332 -0.093458608 1.7570001
0.18088008 -0.093830951 1.7640001
0.18483645 -0.093511797 1.7580001
0.19005448 -0.093830951 1.7640001
0.19453134 -0.093777761 1.7630001
0.19889003 -0.093671374 1.761
0.20011872 -0.092128806 1.7320001
0.20426828 -0.091969222 1.7290001
0.20369324 -0.08973515 1.687
0.20623006 -0.088937268 1.6720001
0.20730346 -0.087554276 1.646
0.20618495 -0.085320204 1.6040001
0.20917578 -0.084841475 1.595
0.21131732 -0.084043592 1.58
0.21160835 -0.082554214 1.552
0.21522743 -0.082394637 1.549
0.21883088 -0.082235068 1.5460001
0.22227459 -0.082022294 1.5420001
0.225991 -0.081915908 1.5400001
0.229697 -0.081809528 1.5380001
0.23354453 -0.081756331 1.5370001
0.23754141 -0.081756331 1.5370001
0.24138117 -0.081703134 1.536
0.24537545 -0.081703134 1.536
0.24920739 -0.081649952 1.5350001
0.25352901 -0.081756331 1.5370001
0.25802854 -0.081915908 1.5400001
0.26271382 -0.082128674 1.544
0.26741996 -0.082341447 1.5480001
0.27197152 -0.082501024 1.5510001
0.27653864 -0.082660593 1.554
0.28726023 -0.084628709 1.5910001
0.29267964 -0.085001051 1.598
0.30259353 -0.086650006 1.6290001
0.30720636 -0.086756393 1.631
0.31755829 -0.088458546 1.6630001
0.32149571 -0.088352159 1.6610001
0.33444589 -0.09069261 1.705
0.33808467 -0.090479843 1.7010001
0.34391752 -0.090852186 1.7080001
0.34876701 -0.090958573 1.71
0.35920393 -0.092501149 1.7390001
0.36477193 -0.092767105 1.7440001
0.37269527 -0.093618184 1.7600001
0.3828454 -0.095001183 1.7860001
0.39096114 -0.095852248 1.802
0.40179482 -0.097341627 1.83
0.40833095 -0.097767167 1.8380001
0.41828009 -0.098990589 1.8610001
0.4238016 -0.099150166 1.8640001
0.43370798 -0.10032039 1.886
0.43931013 -0.10047997 1.8890001
0.44375208 -0.10037358 1.8870001
0.39805663 -0.085320204 1.6040001
0.39620936 -0.084043592 1.58
0.39879793 -0.083724447 1.5740001
0.40161121 -0.083458483 1.5690001
0.40439847 -0.08319252 1.5640001
0.40663737 -0.082820177 1.557
0.40910372 -0.082501024 1.5510001
0.41180515 -0.082235068 1.5460001
0.41421163 -0.081915908 1.5400001
0.41658694 -0.081596754 1.534
0.41893098 -0.081277609 1.5280001
0.42456511 -0.081596754 1.534
0.42687795 -0.081277609 1.5280001
0.42887765 -0.080905259 1.521
0.42771065 -0.079947799 1.503
0.42817307 -0.079309493 1.4910001
0.43089128 -0.079096727 1.4870001
0.43241918 -0.078671187 1.4790001
0.4330205 -0.078086071 1.4680001
0.43505251 -0.077766918 1.462
0.43675318 -0.077394575 1.455
0.43902293 -0.077128612 1.45
0.44065598 -0.076756269 1.4430001
0.44286859 -0.076490313 1.4380001
0.44505513 -0.076224349 1.4330001
0.44721571 -0.075958386 1.4280001
0.44903448 -0.075639233 1.4220001
0.45145881 -0.075426467 1.4180001
0.45354137 -0.075160511 1.4130001
0.45527434 -0.07484135 1.4070001
0.45697609 -0.074522197 1.401
0.45831788 -0.074149854 1.3940001
0.46028599 -0.073883891 1.3890001
0.46256211 -0.073671125 1.3850001
0.4648174 -0.073458359 1.381
0.4561981 -0.07154344 1.345
0.45764506 -0.071224287 1.3390001
0.45906079 -0.070905134 1.3330001
0.46252716 -0.070905134 1.3330001
0.45375818 -0.069043413 1.2980001
0.45537266 -0.068777449 1.2930001
0.45767066 -0.068617873 1.2900001
0.45816618 -0.068192333 1.2820001
0.45718017 -0.067554034 1.2700001
0.4561317 -0.066915721 1.258
0.45684677 -0.066543378 1.251
0.45752546 -0.066171035 1.2440001
0.45853809 -0.065851882 1.238
0.45989251 -0.065585919 1.233
0.46159655 -0.065373152 1.2290001
0.46290153 -0.065107189 1.2240001
0.46494213 -0.064947613 1.2210001
0.4665837 -0.064734839 1.217
0.46859053 -0.06457527 1.2140001
0.47019309 -0.064362496 1.21
0.47216603 -0.06420292 1.207
0.47412348 -0.064043351 1.2040001
0.47606525 -0.063883774 1.2010001
0.47839034 -0.06377738 1.199
0.48070511 -0.063671 1.197
0.48300949 -0.063564621 1.1950001
0.48530343 -0.063458234 1.1930001
0.487587 -0.063351855 1.1910001
0.49027216 -0.063298658 1.1900001
0.4925375 -0.063192271 1.1880001
0.49479246 -0.063085891 1.1860001
0.49703696 -0.062979504 1.184
0.49927109 -0.062873118 1.182
0.50149488 -0.062766738 1.1800001
0.50370824 -0.062660351 1.1780001
0.50634134 -0.062607162 1.177
0.50853652 -0.062500775 1.1750001
0.51115656 -0.062447581 1.174
0.51377153 -0.062394392 1.1730001
0.51726246 -0.062447581 1.174
0.52031535 -0.062447581 1.174
0.5233683 -0.062447581 1.174
0.52731806 -0.062553965 1.176
0.53127819 -0.062660351 1.1780001
0.5352487 -0.062766738 1.1800001
0.54014206 -0.062979504 1.184
0.54551494 -0.06324546 1.189
0.55045253 -0.063458234 1.1930001
0.55541086 -0.063671 1.197
0.56085664 -0.063936964 1.202
0.56632841 -0.06420292 1.207
0.57229799 -0.064522073 1.2130001
0.57782429 -0.064788036 1.2180001
0.58289969 -0.065000802 1.222
0.58751625 -0.065160379 1.225
0.59214842 -0.065319955 1.228
-1.0354605 -0.095668897 1.891
-1.0310881 -0.095719494 1.8920001
-1.0250833 -0.095618308 1.8900001
-1.0201684 -0.095618308 1.8900001
-1.0152535 -0.095618308 1.8900001
-1.0092696 -0.095517129 1.8880001
-1.0048919 -0.095567718 1.8890001
-1.0052733 -0.096073635 1.899
-0.99980837 -0.096023045 1.8980001
-0.99487263 -0.096023045 1.8980001
-0.98941547 -0.095972449 1.8970001
-0.98396349 -0.095921867 1.8960001
-0.97851658 -0.09587127 1.8950001
-0.97410256 -0.095921867 1.8960001
-0.96866095 -0.09587127 1.8950001
-0.96373302 -0.09587127 1.8950001
-0.95931119 -0.095921867 1.8960001
-0.95488411 -0.095972449 1.8970001
-0.95045173 -0.096023045 1.8980001
-0.96245366 -0.097743161 1.932
-0.97279209 -0.099311501 1.9630001
-0.96965933 -0.099513873 1.9670001
-0.96699601 -0.099766828 1.9720001
-0.96333122 -0.099918604 1.9750001
-0.95916569 -0.10001979 1.9770001
-0.95498967 -0.10012097 1.9790001
-0.95080328 -0.10022216 1.9810001
-0.9461292 -0.10027274 1.9820001
-0.94144982 -0.10032333 1.983
-0.93770963 -0.10047511 1.9860001
-0.93207562 -0.10042452 1.9850001
-0.92597973 -0.10032333 1.983
-0.91989434 -0.10022216 1.9810001
-0.89811957 -0.098400854 1.9450001
-0.89214337 -0.098299667 1.9430001
-0.87111121 -0.096528962 1.9080001
-0.86614954 -0.096528962 1.9080001
-0.8485499 -0.095112391 1.8800001
-0.82840335 -0.093392275 1.8460001
-0.82226443 -0.093240499 1.8430001
-0.81614113 -0.093088724 1.84
-0.81135631 -0.093088724 1.84
-0.80700982 -0.093139313 1.8410001
-0.80309385 -0.093240499 1.8430001
-0.80090022 -0.093544051 1.8490001
-0.79695308 -0.09364523 1.8510001
-0.80412227 -0.095061801 1.8790001
-0.80306423 -0.095517129 1.8880001
-0.80026835 -0.095770083 1.8930001
-0.8016479 -0.096528962 1.9080001
-0.79668629 -0.096528962 1.9080001
-0.79172462 -0.096528962 1.9080001
-0.7871753 -0.096579552 1.909
-0.78180128 -0.096528962 1.9080001
-0.77683961 -0.096528962 1.9080001
-0.76702344 -0.095921867 1.8960001
-0.75927931 -0.095567718 1.8890001
-0.75197095 -0.095264174 1.8830001
-0.73953617 -0.094302922 1.8640001
-0.73311234 -0.094100565 1.8600001
-0.72553462 -0.093746416 1.853
-0.71682656 -0.093240499 1.8430001
-0.70932949 -0.092886358 1.8360001
-0.7030201 -0.092683993 1.8320001
-0.69787496 -0.092633396 1.8310001
-0.69311351 -0.092633396 1.8310001
-0.68910396 -0.092734583 1.8330001
-0.68545741 -0.092886358 1.8360001
-0.68216586 -0.093088724 1.84
-0.67922175 -0.093341678 1.845
-0.67625171 -0.093594648 1.8500001
-0.67652202 -0.094302922 1.8640001
-0.67347652 -0.094555885 1.8690001
-0.67004722 -0.094758257 1.8730001
-0.66588682 -0.094859436 1.8750001
-0.66101098 -0.094859436 1.8750001
-0.65613514 -0.094859436 1.8750001
-0.64986992 -0.094657063 1.8710001
-0.64397025 -0.094505288 1.868
-0.63842833 -0.094404109 1.8660001
-0.63289684 -0.094302922 1.8640001
-0.62670189 -0.094100565 1.8600001
-0.62052768 -0.093898192 1.8560001
-0.61470598 -0.093746416 1.853
-0.61087483 -0.093898192 1.8560001
-0.60539526 -0.093797006 1.8540001
-0.59895438 -0.093544051 1.8490001
-0.59253949 -0.093291089 1.8440001
-0.58615059 -0.093038134 1.8390001
-0.5804199 -0.092886358 1.8360001
-0.57282376 -0.092431039 1.8270001
-0.56776178 -0.092380442 1.8260001
-0.56332171 -0.092431039 1.8270001
-0.55918217 -0.092532218 1.8290001
-0.55654782 -0.092886358 1.8360001
-0.55267501 -0.093038134 1.8390001
-0.54878658 -0.09318991 1.8420001
-0.54488248 -0.093341678 1.845
-0.54125559 -0.093544051 1.8490001
-0.5370276 -0.09364523 1.8510001
-0.5330767 -0.093797006 1.8540001
-0.5288254 -0.093898192 1.8560001
-0.52428126 -0.093948789 1.8570001
-0.51973194 -0.093999371 1.858
-0.51517743 -0.094049968 1.8590001
-0.51061773 -0.094100565 1.8600001
-0.50605279 -0.094151147 1.8610001
-0.50148273 -0.094201744 1.8620001
-0.49717408 -0.094302922 1.8640001
-0.49285507 -0.094404109 1.8660001
-0.48852572 -0.094505288 1.868
-0.48392698 -0.094555885 1.8690001
-0.47957942 -0.094657063 1.8710001
-0.47522143 -0.094758257 1.8730001
-0.470853 -0.094859436 1.8750001
-0.46622565 -0.094910026 1.876
-0.46183908 -0.095011212 1.8780001
-0.45719874 -0.095061801 1.8790001
-0.45255321 -0.095112391 1.8800001
-0.44790247 -0.09516298 1.881
-0.44301105 -0.09516298 1.881
-0.4383525 -0.095213577 1.8820001
-0.43368879 -0.095264174 1.8830001
-0.42879215 -0.095264174 1.8830001
-0.42412058 -0.095314756 1.8840001
-0.41944388 -0.095365353 1.8850001
-0.41454202 -0.095365353 1.8850001
-0.40964019 -0.095365353 1.8850001
-0.40452358 -0.095314756 1.8840001
-0.39941224 -0.095264174 1.8830001
-0.39430609 -0.095213577 1.8820001
-0.38899818 -0.095112391 1.8800001
-0.3834964 -0.094960615 1.8770001
-0.37801021 -0.094808839 1.8740001
-0.37253961 -0.094657063 1.8710001
-0.36669162 -0.094404109 1.8660001
-0.36106354 -0.094201744 1.8620001
-0.35526496 -0.093948789 1.8570001
-0.34968105 -0.093746416 1.853
-0.344118 -0.093544051 1.8490001
-0.33875924 -0.093392275 1.8460001
-0.33323514 -0.09318991 1.8420001
-0.32808849 -0.093088724 1.84
-0.32295227 -0.092987537 1.8380001
-0.3181726 -0.092987537 1.8380001
-0.3132225 -0.092936955 1.8370001
-0.30844548 -0.092936955 1.8370001
-0.30366847 -0.092936955 1.8370001
-0.29921684 -0.093038134 1.8390001
-0.2947548 -0.093139313 1.8410001
-0.2902824 -0.093240499 1.8430001
-0.28579956 -0.093341678 1.845
-0.28161097 -0.093544051 1.8490001
-0.2760542 -0.093291089 1.8440001
-0.27081764 -0.093139313 1.8410001
-0.2696428 -0.094404109 1.8660001
-0.26479036 -0.094404109 1.8660001
-0.25798771 -0.093695827 1.8520001
-0.25358176 -0.093847603 1.8550001
-0.24835563 -0.093695827 1.8520001
-0.24301359 -0.093493454 1.848
-0.23498543 -0.092228666 1.8230001
-0.23037112 -0.092279263 1.8240001
-0.22513309 -0.09207689 1.8200001
-0.21628292 -0.090356775 1.7860001
-0.21234949 -0.090660319 1.7920001
-0.20884846 -0.091166236 1.802
-0.19929065 -0.0889908 1.7590001
-0.19438435 -0.088839017 1.756
-0.18884511 -0.088383697 1.7470001
-0.18324715 -0.08787778 1.7370001
-0.17831859 -0.087675415 1.733
-0.17341082 -0.08747305 1.7290001
-0.16842617 -0.087220088 1.7240001
-0.16365771 -0.087068312 1.7210001
-0.15890485 -0.086916536 1.7180001
-0.15416759 -0.08676476 1.715
-0.14944595 -0.086612992 1.7120001
-0.1446552 -0.086410619 1.7080001
-0.14004944 -0.08630944 1.7060001
-0.13537459 -0.086157665 1.7030001
-0.13071536 -0.086005889 1.7
-0.126146 -0.085904703 1.6980001
-0.12158706 -0.085803524 1.6960001
-0.1171767 -0.085803524 1.6960001
-0.11017323 -0.083830446 1.6570001
-0.082056418 -0.074015655 1.4630001
-0.076165952 -0.072042577 1.424
-0.072208472 -0.071789615 1.419
-0.068373576 -0.071637839 1.416
-0.064599968 -0.07153666 1.414
-0.060836762 -0.071435481 1.4120001
-0.057043463 -0.071283698 1.409
-0.053303663 -0.071182519 1.4070001
-0.049609542 -0.071131922 1.406
-0.045920629 -0.07108134 1.4050001
-0.042236909 -0.071030743 1.404
-0.03861336 -0.07108134 1.4050001
-0.035009488 -0.071182519 1.4070001
-0.031350657 -0.071182519 1.4070001
-0.028498759 -0.073256783 1.4480001
-0.024955362 -0.073914476 1.4610001
-0.021677403 -0.075735778 1.4970001
-0.01824785 -0.077708848 1.536
-0.014290678 -0.077911213 1.5400001
-0.010706774 -0.081098489 1.603
-0.0066320621 -0.082262099 1.626
-0.0024554697 -0.084032811 1.6610001
0.0019009101 -0.085702337 1.6940001
0.006324687 -0.085955299 1.6990001
0.010970484 -0.087776601 1.7350001
0.015500112 -0.08787778 1.7370001
0.020132335 -0.088383697 1.7470001
0.024745945 -0.088636659 1.7520001
0.029402284 -0.088940211 1.7580001
0.034457009 -0.090204999 1.7830001
0.039137464 -0.090306185 1.7850001
0.04382832 -0.090407364 1.7870001
0.04852958 -0.090508543 1.789
0.053270966 -0.090660319 1.7920001
0.057995629 -0.090761505 1.794
0.0627307 -0.090862691 1.7960001
0.067513697 -0.091014467 1.7990001
0.072272167 -0.091115654 1.8010001
0.077083766 -0.091267429 1.8040001
0.08191096 -0.091419198 1.807
0.086705849 -0.091520384 1.8090001
0.091460586 -0.091570973 1.8100001
0.095582962 -0.091014467 1.7990001
0.10009398 -0.090862691 1.7960001
0.10453106 -0.090660319 1.7920001
0.10906921 -0.09055914 1.7900001
0.11346988 -0.090356775 1.7860001
0.11784974 -0.090154402 1.7820001
0.12220882 -0.089952044 1.7780001
0.12661842 -0.089800268 1.7750001
0.13101241 -0.089648493 1.7720001
0.1353908 -0.089496709 1.7690001
0.13975359 -0.089344934 1.766
0.14418252 -0.089243755 1.7640001
0.14868538 -0.089193165 1.7630001
0.15326998 -0.089193165 1.7630001
0.15776503 -0.089142576 1.7620001
0.16243917 -0.089193165 1.7630001
0.16702376 -0.089193165 1.7630001
0.17160836 -0.089193165 1.7630001
0.17629288 -0.089243755 1.7640001
0.1811877 -0.089395531 1.7670001
0.18546729 -0.089243755 1.7640001
0.19026995 -0.089344934 1.766
0.19475202 -0.089294352 1.7650001
0.19900298 -0.089142576 1.7620001
0.20381606 -0.089243755 1.7640001
0.20415013 -0.087422453 1.728
0.20502143 -0.085904703 1.6980001
0.2066001 -0.084741093 1.6750001
0.20692565 -0.083122164 1.6430001
0.20657058 -0.081300862 1.6070001
0.20904465 -0.08064317 1.5940001
0.21145107 -0.079985477 1.5810001
0.21160835 -0.078518316 1.552
0.21522743 -0.07836654 1.549
0.21868934 -0.078164175 1.5450001
0.22213045 -0.07796181 1.5410001
0.2256975 -0.077810034 1.5380001
0.22939828 -0.077708848 1.536
0.23324063 -0.077658258 1.5350001
0.23692323 -0.077557072 1.5330001
0.24090974 -0.077557072 1.5330001
0.24473646 -0.077506483 1.5320001
0.24855798 -0.077455886 1.531
0.25286922 -0.077557072 1.5330001
0.2568557 -0.077557072 1.5330001
0.26135263 -0.077708848 1.536
0.26603794 -0.077911213 1.5400001
0.27091938 -0.078164175 1.5450001
0.27493709 -0.078164175 1.5450001
0.27949643 -0.078315951 1.5480001
0.28993231 -0.080086656 1.5830001
0.29702091 -0.080896124 1.5990001
0.30475774 -0.081857368 1.618
0.31068391 -0.082312696 1.6270001
0.31956014 -0.083526894 1.651
0.32856122 -0.084741093 1.6750001
0.3343083 -0.085095234 1.682
0.34371617 -0.08636003 1.7070001
0.34774721 -0.086258844 1.705
0.35899737 -0.08792837 1.738
0.36414444 -0.088080145 1.7410001
0.37248349 -0.0889908 1.7590001
0.3828454 -0.090356775 1.7860001
0.39182901 -0.091368608 1.8060001
0.4020144 -0.092633396 1.8310001
0.40921959 -0.09318991 1.8420001
0.4187296 -0.094252333 1.863
0.42198271 -0.093898192 1.8560001
0.43439788 -0.095567718 1.8890001
0.43977523 -0.095668897 1.891
0.4446927 -0.095668897 1.891
0.39771396 -0.080238432 1.5860001
0.39778444 -0.079428963 1.5700001
0.40084332 -0.079226598 1.5660001
0.40336418 -0.078923047 1.5600001
0.40585387 -0.078619495 1.554
0.40804863 -0.078265354 1.5470001
0.41073966 -0.078012399 1.5420001
0.41313574 -0.077708848 1.536
0.41550067 -0.077405296 1.5300001
0.41783428 -0.077101745 1.524
0.42013681 -0.076798201 1.5180001
0.42240801 -0.076494649 1.5120001
0.42436612 -0.076140508 1.5050001
0.4262878 -0.07578636 1.498
0.42702439 -0.075229861 1.4870001
0.43002194 -0.075078078 1.4840001
0.43124965 -0.07462275 1.475
0.43243057 -0.07416743 1.4660001
0.43415982 -0.073813289 1.4590001
0.43615285 -0.073509738 1.4530001
0.43811461 -0.073206186 1.447
0.44004524 -0.072902642 1.4410001
0.44225264 -0.07264968 1.4360001
0.44412339 -0.072346129 1.4300001
0.44627616 -0.072093174 1.4250001
0.44840294 -0.071840212 1.4200001
0.45050368 -0.071587257 1.4150001
0.45225745 -0.071283698 1.409
0.45430362 -0.071030743 1.404
0.45599756 -0.070727199 1.3980001
0.45733154 -0.070373051 1.391
0.45962325 -0.070170686 1.3870001
0.46256211 -0.070069507 1.3850001
0.46448085 -0.069816545 1.3800001
0.45551974 -0.067944653 1.3430001
0.45730326 -0.067691691 1.3380001
0.45837203 -0.06733755 1.3310001
0.4632211 -0.067539915 1.335
0.45445734 -0.06576921 1.3000001
0.45466828 -0.065313883 1.291
0.45660633 -0.065111518 1.2870001
0.45494971 -0.064403228 1.273
0.45574021 -0.064049087 1.266
0.45576912 -0.063593768 1.2570001
0.45648158 -0.063239619 1.25
0.45752546 -0.062936075 1.2440001
0.45890847 -0.062683113 1.2390001
0.46026552 -0.062430158 1.2340001
0.46197212 -0.062227786 1.23
0.46327969 -0.061974827 1.225
0.46532291 -0.061823051 1.222
0.4665837 -0.061570093 1.217
0.46859053 -0.061418325 1.2140001
0.47019309 -0.061215956 1.21
0.47216603 -0.061064176 1.207
0.47412348 -0.060912408 1.2040001
0.47646159 -0.060811222 1.202
0.47878936 -0.060710039 1.2
0.48070511 -0.060558263 1.197
0.48300949 -0.060457081 1.1950001
0.48530343 -0.060355898 1.1930001
0.48799637 -0.060305305 1.192
0.49027216 -0.060204122 1.1900001
0.4925375 -0.06010294 1.1880001
0.49479246 -0.060001757 1.1860001
0.49703696 -0.059900571 1.184
0.49927109 -0.059799388 1.182
0.50149488 -0.059698205 1.1800001
0.50413579 -0.059647612 1.179
0.50634134 -0.05954643 1.177
0.50853652 -0.059445247 1.1750001
0.51115656 -0.059394654 1.174
0.51377153 -0.059344064 1.1730001
0.51682192 -0.059344064 1.1730001
0.51987219 -0.059344064 1.1730001
0.5233683 -0.059394654 1.174
0.52686965 -0.059445247 1.1750001
0.53037614 -0.059495833 1.176
0.53434151 -0.059597023 1.1780001
0.53922963 -0.059799388 1.182
0.54413861 -0.060001757 1.1860001
0.54952973 -0.060254715 1.1910001
0.55448288 -0.060457081 1.1950001
0.55992341 -0.060710039 1.2
0.56538999 -0.060962997 1.205
0.57088256 -0.061215956 1.21
0.57640111 -0.061468914 1.215
0.58194566 -0.061721869 1.22
0.58655709 -0.061873648 1.223
0.59118402 -0.062025424 1.2260001
-1.0354605 -0.090751447 1.891
-1.0310881 -0.090799443 1.8920001
-1.0256257 -0.090751447 1.891
-1.021248 -0.090799443 1.8920001
-1.016328 -0.090799443 1.8920001
-1.0103388 -0.090703458 1.8900001
-1.0059558 -0.090751447 1.891
-1.0068614 -0.09127935 1.9020001
-1.0013887 -0.091231368 1.9010001
-0.99592096 -0.091183372 1.9000001
-0.99045855 -0.091135375 1.899
-0.98552036 -0.091135375 1.899
-0.9800657 -0.091087393 1.8980001
-0.97513008 -0.091087393 1.8980001
-0.96968323 -0.091039397 1.8970001
-0.96475011 -0.091039397 1.8970001
-0.95981711 -0.091039397 1.8970001
-0.95538747 -0.091087393 1.8980001
-0.95095247 -0.091135375 1.899
-0.97490782 -0.093918875 1.9570001
-0.97279209 -0.094206817 1.9630001
-0.96965933 -0.094398789 1.9670001
-0.96699601 -0.094638743 1.9720001
-0.96333122 -0.094782718 1.9750001
-0.95916569 -0.094878696 1.9770001
-0.95547223 -0.095022671 1.9800001
-0.95128322 -0.095118657 1.9820001
-0.94660652 -0.095166646 1.983
-0.94192457 -0.095214635 1.9840001
-0.93770963 -0.095310621 1.9860001
-0.93207562 -0.095262632 1.9850001
-0.92644668 -0.095214635 1.9840001
-0.91989434 -0.09507066 1.9810001
-0.91381931 -0.094974682 1.9790001
-0.89214337 -0.093246996 1.9430001
-0.8861776 -0.093151011 1.9410001
-0.86569554 -0.091519311 1.9070001
-0.86028516 -0.091471322 1.9060001
-0.80788654 -0.088447869 1.8430001
-0.80396539 -0.088543847 1.845
-0.80133337 -0.088783816 1.8500001
-0.79738361 -0.088879794 1.8520001
-0.80540615 -0.090319529 1.8820001
-0.80348957 -0.090655468 1.8890001
-0.80069107 -0.090895422 1.8940001
-0.8016479 -0.0915673 1.9080001
-0.79668629 -0.0915673 1.9080001
-0.79172462 -0.0915673 1.9080001
-0.7875877 -0.091663286 1.9100001
-0.78221101 -0.091615289 1.909
-0.77683961 -0.0915673 1.9080001
-0.771878 -0.0915673 1.9080001
-0.75847542 -0.090559483 1.8870001
-0.75117224 -0.090271533 1.881
-0.74112314 -0.089647651 1.868
-0.73429471 -0.08940769 1.863
-0.72710085 -0.089119747 1.8570001
-0.71954924 -0.088783816 1.8500001
-0.71048856 -0.088255905 1.8390001
-0.7041713 -0.08806394 1.835
-0.69863725 -0.087967955 1.8330001
-0.6938706 -0.087967955 1.8330001
-0.68985581 -0.08806394 1.835
-0.68620408 -0.088207915 1.8380001
-0.68327814 -0.088447869 1.8430001
-0.68032616 -0.088687822 1.848
-0.67734826 -0.088927783 1.853
-0.67869967 -0.089743637 1.8700001
-0.67527819 -0.089935601 1.8740001
-0.67147815 -0.090079576 1.8770001
-0.66730738 -0.090175554 1.8790001
-0.66206861 -0.090127565 1.8780001
-0.65718496 -0.090127565 1.8780001
-0.65091193 -0.089935601 1.8740001
-0.64500451 -0.089791626 1.8710001
-0.63945478 -0.08969564 1.8690001
-0.63357586 -0.089551665 1.8660001
-0.62737572 -0.089359708 1.8620001
-0.62119633 -0.089167736 1.858
-0.61503774 -0.088975772 1.8540001
-0.61153305 -0.089167736 1.858
-0.60604835 -0.089071758 1.8560001
-0.59927833 -0.088783816 1.8500001
-0.59286082 -0.088543847 1.845
-0.58710676 -0.08839988 1.8420001
-0.58105218 -0.088207915 1.8380001
-0.57376432 -0.08782398 1.83
-0.56869459 -0.087775998 1.8290001
-0.56455505 -0.087871976 1.8310001
-0.56040508 -0.087967955 1.8330001
-0.55745721 -0.088255905 1.8390001
-0.55357659 -0.08839988 1.8420001
-0.54938239 -0.088495865 1.8440001
-0.54576844 -0.088687822 1.848
-0.54184103 -0.088831797 1.8510001
-0.53760785 -0.088927783 1.853
-0.53365177 -0.089071758 1.8560001
-0.52939522 -0.089167736 1.858
-0.5248459 -0.089215733 1.8590001
-0.52029139 -0.089263722 1.8600001
-0.51573169 -0.089311711 1.8610001
-0.51089221 -0.089311711 1.8610001
-0.50632471 -0.089359708 1.8620001
-0.50175202 -0.08940769 1.863
-0.49744084 -0.089503683 1.8650001
-0.49311921 -0.089599662 1.8670001
-0.48852572 -0.089647651 1.868
-0.48418593 -0.089743637 1.8700001
-0.47957942 -0.089791626 1.8710001
-0.47522143 -0.089887612 1.8730001
-0.470853 -0.08998359 1.8750001
-0.46622565 -0.090031579 1.876
-0.46183908 -0.090127565 1.8780001
-0.45695543 -0.090127565 1.8780001
-0.45255321 -0.090223551 1.8800001
-0.44790247 -0.090271533 1.881
-0.44301105 -0.090271533 1.881
-0.4383525 -0.090319529 1.8820001
-0.43368879 -0.090367526 1.8830001
-0.42879215 -0.090367526 1.8830001
-0.42412058 -0.090415508 1.8840001
-0.41944388 -0.090463504 1.8850001
-0.41454202 -0.090463504 1.8850001
-0.40942284 -0.090415508 1.8840001
-0.40452358 -0.090415508 1.8840001
-0.39941224 -0.090367526 1.8830001
-0.3945156 -0.090367526 1.8830001
-0.3892051 -0.090271533 1.881
-0.38370073 -0.090127565 1.8780001
-0.37821195 -0.08998359 1.8750001
-0.37273875 -0.089839615 1.8720001
-0.36708465 -0.089647651 1.868
-0.36125746 -0.08940769 1.863
-0.35564759 -0.089215733 1.8590001
-0.3500585 -0.089023769 1.8550001
-0.34467632 -0.088879794 1.8520001
-0.33930978 -0.088735819 1.8490001
-0.33395877 -0.088591844 1.8460001
-0.32898003 -0.088543847 1.845
-0.32383081 -0.088447869 1.8430001
-0.31903815 -0.088447869 1.8430001
-0.31407505 -0.08839988 1.8420001
-0.30945292 -0.088447869 1.8430001
-0.3048256 -0.088495865 1.8440001
-0.30019304 -0.088543847 1.845
-0.29571545 -0.08863984 1.8470001
-0.29122743 -0.088735819 1.8490001
-0.28672898 -0.088831797 1.8510001
-0.28237247 -0.088975772 1.8540001
-0.28039563 -0.089887612 1.8730001
-0.27596626 -0.090031579 1.876
-0.27065432 -0.089887612 1.8730001
-0.26564178 -0.089839615 1.8720001
-0.26049516 -0.089743637 1.8700001
-0.25385517 -0.089119747 1.8570001
-0.24848972 -0.088927783 1.853
-0.24156709 -0.088159926 1.8370001
-0.23833685 -0.088735819 1.8490001
-0.23087631 -0.087728001 1.8280001
-0.22550419 -0.087488048 1.8230001
-0.22052138 -0.087392062 1.8210001
-0.21246798 -0.086048312 1.7930001
-0.20792128 -0.086096294 1.794
-0.19951724 -0.084512584 1.761
-0.19471645 -0.084416606 1.7590001
-0.18895319 -0.083888702 1.748
-0.18293066 -0.083216824 1.7340001
-0.17800991 -0.083024859 1.7300001
-0.17310993 -0.082832895 1.7260001
-0.16813308 -0.082592934 1.7210001
-0.16337243 -0.082448967 1.7180001
-0.15853487 -0.082257003 1.7140001
-0.15380803 -0.082113028 1.7110001
-0.14909677 -0.081969053 1.7080001
-0.14431642 -0.081777088 1.7040001
-0.13972107 -0.081681103 1.702
-0.13505663 -0.081537135 1.6990001
-0.1304078 -0.08139316 1.6960001
-0.12592313 -0.081345163 1.6950001
-0.12144368 -0.081297174 1.6940001
-0.1178676 -0.081873067 1.7060001
-0.10997377 -0.079377525 1.654
-0.081888154 -0.070067219 1.46
-0.076058976 -0.068243556 1.4220001
-0.072208472 -0.068099581 1.419
-0.068373576 -0.067955606 1.416
-0.064599968 -0.06785962 1.414
-0.060793672 -0.067715652 1.411
-0.057043463 -0.067619666 1.409
-0.053265776 -0.067475691 1.406
-0.04957426 -0.067427702 1.4050001
-0.045887943 -0.067379713 1.404
-0.042206828 -0.067331724 1.4030001
-0.038585875 -0.067379713 1.404
-0.034959726 -0.067427702 1.4050001
-0.031328373 -0.067475691 1.406
-0.027829589 -0.06785962 1.414
-0.024733309 -0.069491327 1.4480001
-0.021127142 -0.07001923 1.4590001
-0.017879568 -0.07222683 1.5050001
-0.014337077 -0.074146479 1.5450001
-0.010473002 -0.075250275 1.5680001
-0.0065464079 -0.07702595 1.605
-0.0024170338 -0.078465693 1.6350001
0.0018605129 -0.079569489 1.6580001
0.0063284095 -0.081585124 1.7
0.0107555 -0.081633113 1.7010001
0.015491189 -0.083312809 1.7360001
0.020097762 -0.083696738 1.7440001
0.024675323 -0.083840713 1.7470001
0.029301934 -0.084080666 1.7520001
0.034418359 -0.085472412 1.7810001
0.039049763 -0.085472412 1.7810001
0.043754742 -0.085616387 1.784
0.048421074 -0.085664377 1.7850001
0.053152062 -0.085808352 1.7880001
0.05786632 -0.085904337 1.7900001
0.062590986 -0.086000316 1.7920001
0.067363583 -0.086144291 1.7950001
0.072111644 -0.086240269 1.7970001
0.076870114 -0.086336255 1.7990001
0.081684314 -0.08648023 1.802
0.086466193 -0.086576216 1.8040001
0.091207936 -0.086624205 1.8050001
0.095370434 -0.086144291 1.7950001
0.099871047 -0.086000316 1.7920001
0.10435606 -0.085856341 1.789
0.10888641 -0.085760362 1.7870001
0.11334281 -0.085616387 1.784
0.11778361 -0.085472412 1.7810001
0.12220882 -0.085328437 1.7780001
0.12668976 -0.085232459 1.7760001
0.13116027 -0.085136473 1.774
0.13562042 -0.085040495 1.7720001
0.139991 -0.08489652 1.7690001
0.14450946 -0.084848531 1.7680001
0.14910707 -0.084848531 1.7680001
0.15370466 -0.084848531 1.7680001
0.15830226 -0.084848531 1.7680001
0.162992 -0.08489652 1.7690001
0.16759218 -0.08489652 1.7690001
0.17219239 -0.08489652 1.7690001
0.17689252 -0.084944509 1.7700001
0.18159786 -0.084992498 1.771
0.18599299 -0.08489652 1.7690001
0.19059317 -0.08489652 1.7690001
0.19497269 -0.084800534 1.7670001
0.19922885 -0.084656559 1.7640001
0.20381606 -0.084656559 1.7640001
0.20450456 -0.083072849 1.7310001
0.20550439 -0.081681103 1.702
0.20697013 -0.080529317 1.6780001
0.20818508 -0.079329535 1.6530001
0.20682767 -0.077217922 1.6090001
0.20930693 -0.076594032 1.5960001
0.21131732 -0.075826168 1.58
0.21215373 -0.074674383 1.5560001
0.21536638 -0.074386433 1.5500001
0.21868934 -0.074146479 1.5450001
0.22213045 -0.073954515 1.5410001
0.2256975 -0.07381054 1.5380001
0.22924896 -0.073666565 1.5350001
0.23293674 -0.073570587 1.5330001
0.23661411 -0.073474601 1.531
0.24043828 -0.073426612 1.5300001
0.24409747 -0.073330626 1.5280001
0.24807096 -0.073330626 1.5280001
0.2522094 -0.073378615 1.529
0.25635305 -0.073426612 1.5300001
0.26050186 -0.073474601 1.531
0.26500142 -0.073618576 1.534
