# .PCD v0.7 - Point Cloud Data file format
VERSION 0.7
FIELDS x y z
SIZE 4 4 4
TYPE F F F
COUNT 1 1 1
WIDTH 1489
HEIGHT 1
VIEWPOINT 0 0 0 1 0 0 0
POINTS 1489
DATA ascii
-0.45372969 -0.53791684 1.5500001
-0.44882858 -0.53687567 1.5470001
-0.44394308 -0.53583455 1.544
-0.44192252 -0.53826386 1.5510001
-0.43563059 -0.53548753 1.5430001
-0.43077889 -0.53444642 1.5400001
-0.42621997 -0.53375232 1.5380001
-0.42167139 -0.53305823 1.536
-0.41740519 -0.53271121 1.5350001
-0.41314417 -0.53236413 1.534
-0.40888837 -0.53201711 1.5330001
-0.40463772 -0.53167003 1.5320001
-0.40013081 -0.530976 1.5300001
-0.39589319 -0.53062892 1.529
-0.39191711 -0.53062892 1.529
-0.3876873 -0.5302819 1.5280001
-0.38346267 -0.52993482 1.5270001
-0.37949178 -0.52993482 1.5270001
-0.37576684 -0.5302819 1.5280001
-0.37228 -0.530976 1.5300001
-0.36878273 -0.53167003 1.5320001
-0.36551321 -0.53271121 1.5350001
-0.36222807 -0.53375232 1.5380001
-0.35916021 -0.53514045 1.5420001
-0.35630193 -0.53687567 1.5470001
-0.35341763 -0.53861088 1.552
-0.35028219 -0.53999913 1.5560001
-0.34757099 -0.54208136 1.562
-0.34460866 -0.54381657 1.567
-0.34140304 -0.54520476 1.5710001
-0.33796185 -0.54624587 1.5740001
-0.33471721 -0.54763401 1.5780001
-0.33103272 -0.5483281 1.58
-0.32713091 -0.54867518 1.5810001
-0.32301962 -0.54867518 1.5810001
-0.31911001 -0.5490222 1.582
-0.31499609 -0.5490222 1.582
-0.31088218 -0.5490222 1.582
-0.30676827 -0.5490222 1.582
-0.30265436 -0.5490222 1.582
-0.29854044 -0.5490222 1.582
-0.29461265 -0.54936922 1.5830001
-0.29049614 -0.54936922 1.5830001
-0.28674144 -0.55006331 1.585
-0.28279802 -0.55041039 1.5860001
-0.27884945 -0.55075747 1.5870001
-0.27506873 -0.5514515 1.5890001
-0.27127761 -0.5521456 1.5910001
-0.26747611 -0.5528397 1.5930001
-0.26382953 -0.55388081 1.5960001
-0.26000461 -0.55457491 1.598
-0.25600919 -0.55492193 1.5990001
-0.25216609 -0.55561602 1.6010001
-0.24815767 -0.5559631 1.6020001
-0.24414405 -0.55631012 1.603
-0.24087377 -0.55839235 1.6090001
-0.2356599 -0.5559631 1.6020001
-0.23221651 -0.55769831 1.6070001
-0.22775376 -0.55700415 1.605
-0.22204773 -0.55318671 1.5940001
-0.21749249 -0.5521456 1.5910001
-0.21281879 -0.55075747 1.5870001
-0.20816587 -0.54936922 1.5830001
-0.20353374 -0.54798108 1.5790001
-0.19879614 -0.54624587 1.5740001
-0.19408453 -0.54451066 1.5690001
-0.18939893 -0.54277545 1.5640001
-0.18473931 -0.54104018 1.559
-0.17998983 -0.53895795 1.5530001
-0.17538483 -0.53722274 1.5480001
-0.17091654 -0.53583455 1.544
-0.16560429 -0.53167003 1.5320001
-0.16109292 -0.52993482 1.5270001
-0.15671046 -0.52854669 1.5230001
-0.15264967 -0.52819961 1.5220001
-0.14859408 -0.52785254 1.521
-0.14473389 -0.52819961 1.5220001
-0.14096099 -0.52889371 1.524
-0.13735749 -0.5302819 1.5280001
-0.13382046 -0.53201711 1.5330001
-0.13042681 -0.53444642 1.5400001
-0.12707886 -0.53722274 1.5480001
-0.1236098 -0.53965205 1.5550001
-0.12002746 -0.54173434 1.5610001
-0.11626531 -0.54312247 1.5650001
-0.11248237 -0.54451066 1.5690001
-0.10860953 -0.54555178 1.572
-0.1046546 -0.54624587 1.5740001
-0.10068928 -0.54693997 1.5760001
-0.096713535 -0.54763401 1.5780001
-0.09266872 -0.54798108 1.5790001
-0.088562608 -0.54798108 1.5790001
-0.084509976 -0.5483281 1.58
-0.080401264 -0.5483281 1.58
-0.076292552 -0.5483281 1.58
-0.072138153 -0.54798108 1.5790001
-0.068032049 -0.54798108 1.5790001
-0.063885443 -0.54763401 1.5780001
-0.059781931 -0.54763401 1.5780001
-0.055643134 -0.54728699 1.577
-0.051509544 -0.54693997 1.5760001
-0.047381148 -0.54659289 1.575
-0.043285437 -0.54659289 1.575
-0.039164845 -0.54624587 1.5740001
-0.035071738 -0.54624587 1.5740001
-0.030978626 -0.54624587 1.5740001
-0.026902596 -0.54659289 1.575
-0.022806887 -0.54659289 1.575
-0.018723056 -0.54693997 1.5760001
-0.014615466 -0.54659289 1.575
-0.010519756 -0.54659289 1.575
-0.0064240457 -0.54659289 1.575
-0.0023283351 -0.54659289 1.575
0.0017673749 -0.54659289 1.575
0.0058630854 -0.54659289 1.575
0.0099524735 -0.54624587 1.5740001
0.014036658 -0.5458988 1.5730001
0.018115643 -0.54555178 1.572
0.022189429 -0.54520476 1.5710001
0.02625801 -0.54485768 1.5700001
0.03034072 -0.54485768 1.5700001
0.034423426 -0.54485768 1.5700001
0.038506135 -0.54485768 1.5700001
0.042561721 -0.54451066 1.5690001
0.046641827 -0.54451066 1.5690001
0.050754257 -0.54485768 1.5700001
0.05483697 -0.54485768 1.5700001
0.058919676 -0.54485768 1.5700001
0.063002385 -0.54485768 1.5700001
0.067127824 -0.54520476 1.5710001
0.071213126 -0.54520476 1.5710001
0.075202584 -0.54451066 1.5690001
0.079232156 -0.54416358 1.5680001
0.083203398 -0.54346955 1.5660001
0.087219968 -0.54312247 1.5650001
0.091114677 -0.54208136 1.562
0.095054723 -0.54138726 1.5600001
0.09892083 -0.54034615 1.557
0.10277132 -0.53930497 1.554
0.10667496 -0.53861088 1.552
0.11049686 -0.53756976 1.549
0.11437708 -0.53687567 1.5470001
0.11824692 -0.53618163 1.5450001
0.12210635 -0.53548753 1.5430001
0.12603709 -0.53514045 1.5420001
0.12987833 -0.53444642 1.5400001
0.13388301 -0.53444642 1.5400001
0.13779818 -0.53409934 1.539
0.14170814 -0.53375232 1.5380001
0.14570762 -0.53375232 1.5380001
0.14960977 -0.53340524 1.5370001
0.15360667 -0.53340524 1.5370001
0.15750103 -0.53305823 1.536
0.16149531 -0.53305823 1.536
0.16527413 -0.53236413 1.534
0.16915289 -0.53201711 1.5330001
0.17291348 -0.53132302 1.531
0.17677924 -0.530976 1.5300001
0.18052165 -0.5302819 1.5280001
0.18437439 -0.52993482 1.5270001
0.18809859 -0.52924073 1.5250001
0.19193833 -0.52889371 1.524
0.19564432 -0.52819961 1.5220001
0.19947107 -0.52785254 1.521
0.20329262 -0.52750552 1.5200001
0.20710894 -0.5271585 1.5190001
0.21078116 -0.5264644 1.5170001
0.21472603 -0.5264644 1.5170001
0.2186709 -0.5264644 1.5170001
0.22261581 -0.5264644 1.5170001
0.22536591 -0.52368808 1.5090001
0.22928998 -0.52368808 1.5090001
0.23321405 -0.52368808 1.5090001
0.23839535 -0.5264644 1.5170001
0.24218047 -0.52611732 1.516
0.2462851 -0.5264644 1.5170001
0.25039494 -0.52681148 1.5180001
0.25467753 -0.52750552 1.5200001
0.2582899 -0.52681148 1.5180001
0.26241016 -0.5271585 1.5190001
0.26671094 -0.52785254 1.521
0.27084416 -0.52819961 1.5220001
0.2749826 -0.52854669 1.5230001
0.27949256 -0.52958775 1.526
0.28383237 -0.5302819 1.5280001
0.28893596 -0.53236413 1.534
0.29349795 -0.53340524 1.5370001
0.29788193 -0.53409934 1.539
0.30227634 -0.53479344 1.5410001
0.30687991 -0.53583455 1.544
0.31170043 -0.53722274 1.5480001
0.31654173 -0.53861088 1.552
0.32140389 -0.53999913 1.5560001
0.32649601 -0.54173434 1.5610001
0.33182582 -0.54381657 1.567
0.3369725 -0.54555178 1.572
0.34214523 -0.54728699 1.577
0.3471244 -0.54867518 1.5810001
0.3534573 -0.5521456 1.5910001
0.37130505 -0.5733152 1.6520001
0.40197492 -0.61357224 1.7680001
0.42542937 -0.64202976 1.8500001
0.47549903 -0.70172119 2.0220001
0.50596005 -0.73850769 2.128
0.53937602 -0.77876478 2.2440002
0.59113163 -0.84435588 2.4330001
0.59598511 -0.84227359 2.427
0.60626704 -0.8478263 2.4430001
0.61387378 -0.84956157 2.4480002
0.62125313 -0.8509497 2.4520001
0.62865335 -0.8523379 2.4560001
0.63581568 -0.85337901 2.4590001
0.64299375 -0.85442013 2.4620001
0.64965981 -0.85476714 2.4630001
0.65633112 -0.85511428 2.4640002
0.66273862 -0.85511428 2.4640002
0.66887456 -0.85476714 2.4630001
0.67473114 -0.85407311 2.4610002
0.68057728 -0.85337901 2.4590001
0.68613362 -0.8523379 2.4560001
0.69139254 -0.8509497 2.4520001
0.6966306 -0.84956157 2.4480002
0.69868881 -0.84435588 2.4330001
0.70472598 -0.84400886 2.4320002
0.71046555 -0.84331477 2.4300001
0.71619469 -0.84262073 2.4280002
0.72191346 -0.84192657 2.4260001
0.72702146 -0.84053844 2.4220002
0.72938365 -0.83602685 2.4090002
0.73442668 -0.83463871 2.4050002
0.73944885 -0.83325046 2.401
0.74476075 -0.83220935 2.398
0.75037032 -0.83151531 2.3960001
0.75628525 -0.83116829 2.3950002
0.76251334 -0.83116829 2.3950002
0.7690624 -0.83151531 2.3960001
0.77594018 -0.83220935 2.398
0.78315455 -0.83325046 2.401
0.79038459 -0.83429164 2.404
0.80160677 -0.83949733 2.4190001
0.80823123 -0.83984435 2.4200001
0.81452435 -0.83984435 2.4200001
0.82115656 -0.84019136 2.421
0.82813591 -0.84088546 2.4230001
0.8358143 -0.84227359 2.427
0.84247261 -0.84262073 2.4280002
0.84808731 -0.84192657 2.4260001
0.85474819 -0.84227359 2.427
0.86567163 -0.84678519 2.4400001
0.87237418 -0.84713227 2.4410002
0.87692195 -0.845397 2.4360001
0.88398182 -0.84609115 2.4380002
0.89141732 -0.84713227 2.4410002
0.8981328 -0.84747928 2.4420002
0.90522379 -0.84817332 2.444
0.91232532 -0.84886748 2.4460001
0.9190616 -0.84921449 2.447
0.9242903 -0.84817332 2.444
0.93140739 -0.84886748 2.4460001
0.93815142 -0.84921449 2.447
0.94451475 -0.84921449 2.447
0.95048952 -0.84886748 2.4460001
0.95685017 -0.84886748 2.4460001
0.96321088 -0.84886748 2.4460001
0.96957165 -0.84886748 2.4460001
0.97553331 -0.84852046 2.4450002
0.98189145 -0.84852046 2.4450002
0.98865372 -0.84886748 2.4460001
0.99542117 -0.84921449 2.447
1.0021939 -0.84956157 2.4480002
1.0089718 -0.84990859 2.4490001
1.0153403 -0.84990859 2.4490001
1.0217088 -0.84990859 2.4490001
1.0280774 -0.84990859 2.4490001
1.0340234 -0.84956157 2.4480002
1.0399643 -0.84921449 2.447
1.0450449 -0.84817332 2.444
1.0501099 -0.84713227 2.4410002
1.0516967 -0.84331477 2.4300001
1.0567095 -0.84227359 2.427
1.0617069 -0.84123248 2.424
1.0653669 -0.83915031 2.4180002
1.0672227 -0.83567983 2.4080002
1.0743762 -0.83637387 2.4100001
1.0784013 -0.83463871 2.4050002
1.0833024 -0.8335976 2.4020002
1.0827446 -0.82839191 2.3870001
1.0880396 -0.82769787 2.3850002
1.0928652 -0.82665676 2.3820002
1.0990595 -0.82665676 2.3820002
1.1047897 -0.82630962 2.381
1.1109813 -0.82630962 2.381
1.1171731 -0.82630962 2.381
1.1238366 -0.82665676 2.3820002
1.1305052 -0.82700372 2.3830001
1.1429032 -0.83151531 2.3960001
1.1496135 -0.83186233 2.3970001
1.1568111 -0.83255643 2.3990002
-0.89936316 -0.56040817 1.6270001
-0.89568239 -0.56075263 1.628
-0.89199638 -0.56109709 1.6290001
-0.88830531 -0.56144154 1.6300001
-0.88406658 -0.56144154 1.6300001
-0.88036752 -0.56178594 1.631
-0.87666345 -0.56213039 1.6320001
-0.87295413 -0.56247485 1.6330001
-0.86870754 -0.56247485 1.6330001
-0.86499035 -0.5628193 1.6340001
-0.86021447 -0.56247485 1.6330001
-0.85544372 -0.56213039 1.6320001
-0.85067821 -0.56178594 1.631
-0.84487998 -0.56075263 1.628
-0.83961368 -0.56006372 1.626
-0.83384407 -0.55903041 1.623
-0.82809013 -0.55799711 1.6200001
-0.82184303 -0.55661935 1.6160001
-0.81612283 -0.55558598 1.613
-0.81041825 -0.55455267 1.6100001
-0.80472916 -0.55351937 1.6070001
-0.79955387 -0.55283046 1.605
-0.79389352 -0.55179715 1.6020001
-0.78874165 -0.55110824 1.6
-0.78458089 -0.55110824 1.6
-0.77993244 -0.55076379 1.5990001
-0.77528918 -0.55041933 1.598
-0.76486033 -0.54594159 1.585
-0.76025867 -0.5455972 1.5840001
-0.75613958 -0.5455972 1.5840001
-0.75154567 -0.54525274 1.5830001
-0.75262296 -0.54904157 1.5940001
-0.74800825 -0.54869711 1.5930001
-0.74339879 -0.54835272 1.5920001
-0.73833013 -0.54766381 1.59
-0.73373365 -0.54731941 1.5890001
-0.72914237 -0.5469749 1.5880001
-0.72409976 -0.54628605 1.5860001
-0.71906757 -0.5455972 1.5840001
-0.71449703 -0.54525274 1.5830001
-0.70948303 -0.54456383 1.5810001
-0.70492554 -0.54421937 1.58
-0.70037329 -0.54387498 1.5790001
-0.69582623 -0.54353052 1.5780001
-0.69172269 -0.54353052 1.5780001
-0.68718344 -0.54318607 1.577
-0.68264943 -0.54284161 1.5760001
-0.67855108 -0.54284161 1.5760001
-0.67359686 -0.54215276 1.5740001
-0.66907841 -0.54180831 1.5730001
-0.66456509 -0.54146385 1.572
-0.65963691 -0.54077494 1.5700001
-0.6551367 -0.54043055 1.5690001
-0.65022665 -0.53974164 1.567
-0.64532709 -0.53905272 1.5650001
-0.64125735 -0.53905272 1.5650001
-0.6371876 -0.53905272 1.5650001
-0.63311797 -0.53905272 1.5650001
-0.6294502 -0.53939718 1.5660001
-0.62537789 -0.53939718 1.5660001
-0.62170231 -0.53974164 1.567
-0.61802155 -0.54008609 1.5680001
-0.6143356 -0.54043055 1.5690001
-0.61025554 -0.54043055 1.5690001
-0.60617542 -0.54043055 1.5690001
-0.60171151 -0.54008609 1.5680001
-0.59725285 -0.53974164 1.567
-0.59279943 -0.53939718 1.5660001
-0.58797526 -0.53870833 1.5640001
-0.58353478 -0.53836387 1.5630001
-0.57909954 -0.53801942 1.562
-0.5743013 -0.53733051 1.5600001
-0.56987911 -0.53698605 1.559
-0.56546205 -0.53664166 1.5580001
-0.56105024 -0.5362972 1.557
-0.55628586 -0.53560835 1.5550001
-0.55188698 -0.53526384 1.554
-0.5474934 -0.53491944 1.5530001
-0.54275501 -0.53423059 1.5510001
-0.53802699 -0.53354168 1.549
-0.53365421 -0.53319722 1.5480001
-0.5292865 -0.53285277 1.5470001
-0.5249241 -0.53250837 1.5460001
-0.51955605 -0.53113055 1.5420001
-0.51822084 -0.53388613 1.5500001
-0.5148536 -0.53457499 1.552
-0.51180512 -0.53560835 1.5550001
-0.50906754 -0.53698605 1.559
-0.50630915 -0.53836387 1.5630001
-0.50353003 -0.53974164 1.567
-0.50073004 -0.5411194 1.5710001
-0.49727699 -0.54180831 1.5730001
-0.49412712 -0.54284161 1.5760001
-0.4903397 -0.54318607 1.577
-0.48654717 -0.54353052 1.5780001
-0.48244363 -0.54353052 1.5780001
-0.47834009 -0.54353052 1.5780001
-0.47002921 -0.53870833 1.5640001
-0.46536621 -0.53801942 1.562
-0.46041828 -0.53698605 1.559
-0.45490059 -0.53526384 1.554
-0.44969895 -0.53388613 1.5500001
-0.44796848 -0.53664166 1.5580001
-0.44277728 -0.53526384 1.554
-0.43619522 -0.53216392 1.5450001
-0.43133834 -0.53113055 1.5420001
-0.42705137 -0.53078616 1.5410001
-0.42249498 -0.53009725 1.539
-0.41822097 -0.52975279 1.5380001
-0.41368282 -0.52906388 1.536
-0.4094218 -0.52871948 1.5350001
-0.40516597 -0.52837503 1.534
-0.40091538 -0.52803057 1.5330001
-0.39666995 -0.52768612 1.5320001
-0.3926861 -0.52768612 1.5320001
-0.38844845 -0.52734166 1.531
-0.38421604 -0.52699727 1.5300001
-0.38048586 -0.52734166 1.531
-0.37650457 -0.52734166 1.531
-0.37276661 -0.52768612 1.5320001
-0.36950487 -0.52871948 1.5350001
-0.36598942 -0.52940834 1.5370001
-0.36269909 -0.5304417 1.5400001
-0.35962605 -0.53181946 1.544
-0.35676256 -0.53354168 1.549
-0.35387304 -0.53526384 1.554
-0.35073242 -0.53664166 1.5580001
-0.34801602 -0.53870833 1.5640001
-0.34482858 -0.54008609 1.5680001
-0.34183767 -0.54180831 1.5730001
-0.3383913 -0.54284161 1.5760001
-0.33514142 -0.54421937 1.58
-0.33145174 -0.54490829 1.582
-0.32754475 -0.54525274 1.5830001
-0.32363257 -0.5455972 1.5840001
-0.31951344 -0.5455972 1.5840001
-0.31559342 -0.54594159 1.585
-0.3114717 -0.54594159 1.585
-0.30735001 -0.54594159 1.585
-0.30322829 -0.54594159 1.585
-0.29910657 -0.54594159 1.585
-0.29517099 -0.54628605 1.5860001
-0.2912302 -0.5466305 1.5870001
-0.28746507 -0.54731941 1.5890001
-0.28351125 -0.54766381 1.59
-0.27955225 -0.54800826 1.5910001
-0.27576116 -0.54869711 1.5930001
-0.27213016 -0.54973048 1.5960001
-0.26831564 -0.55041933 1.598
-0.26432547 -0.55076379 1.5990001
-0.26065543 -0.55179715 1.6020001
-0.25680974 -0.552486 1.6040001
-0.25295362 -0.55317491 1.6060001
-0.24877729 -0.55317491 1.6060001
-0.24475327 -0.55351937 1.6070001
-0.24147257 -0.55558598 1.613
-0.23713094 -0.55524158 1.6120001
-0.23279451 -0.55489713 1.6110001
-0.22832139 -0.55420822 1.6090001
-0.22358005 -0.55283046 1.605
-0.2179026 -0.54904157 1.5940001
-0.21308698 -0.54731941 1.5890001
-0.20842886 -0.54594159 1.585
-0.20353374 -0.54387498 1.5790001
-0.19879614 -0.54215276 1.5740001
-0.19396082 -0.54008609 1.5680001
-0.18915671 -0.53801942 1.562
-0.18438382 -0.53595281 1.5560001
-0.17964214 -0.53388613 1.5500001
-0.17504494 -0.53216392 1.5450001
-0.16925609 -0.52665281 1.529
-0.16506381 -0.5259639 1.5270001
-0.16056544 -0.52424175 1.5220001
-0.15619598 -0.52286398 1.5180001
-0.15214819 -0.52251953 1.5170001
-0.14810561 -0.52217507 1.516
-0.14435352 -0.52286398 1.5180001
-0.1406835 -0.52389723 1.521
-0.13708781 -0.52527505 1.5250001
-0.13364586 -0.52734166 1.531
-0.13034211 -0.53009725 1.539
-0.12716095 -0.53354168 1.549
-0.12376878 -0.5362972 1.557
-0.12018124 -0.53836387 1.5630001
-0.11648819 -0.54008609 1.5680001
-0.11269743 -0.54146385 1.572
-0.1088859 -0.54284161 1.5760001
-0.10492056 -0.54353052 1.5780001
-0.10094483 -0.54421937 1.58
-0.096958689 -0.54490829 1.582
-0.092903465 -0.54525274 1.5830001
-0.088786952 -0.54525274 1.5830001
-0.084723927 -0.5455972 1.5840001
-0.080604814 -0.5455972 1.5840001
-0.076485701 -0.5455972 1.5840001
-0.072320901 -0.54525274 1.5830001
-0.068204388 -0.54525274 1.5830001
-0.064047381 -0.54490829 1.582
-0.059933469 -0.54490829 1.582
-0.055748988 -0.54421937 1.58
-0.051607598 -0.54387498 1.5790001
-0.047471397 -0.54353052 1.5780001
-0.043367889 -0.54353052 1.5780001
-0.039239489 -0.54318607 1.577
-0.035138581 -0.54318607 1.577
-0.031037668 -0.54318607 1.577
-0.026936758 -0.54318607 1.577
-0.022835847 -0.54318607 1.577
-0.018734936 -0.54318607 1.577
-0.014643306 -0.54353052 1.5780001
-0.010539793 -0.54353052 1.5780001
-0.0064362818 -0.54353052 1.5780001
-0.00233277 -0.54353052 1.5780001
0.0017707414 -0.54353052 1.5780001
0.0058705304 -0.54318607 1.577
0.0099714417 -0.54318607 1.577
0.014063429 -0.54284161 1.5760001
0.01816174 -0.54284161 1.5760001
0.022245927 -0.54249716 1.575
0.026324911 -0.54215276 1.5740001
0.030437347 -0.54249716 1.575
0.034533057 -0.54249716 1.575
0.038604241 -0.54215276 1.5740001
0.042697351 -0.54215276 1.5740001
0.046790462 -0.54215276 1.5740001
0.050915893 -0.54249716 1.575
0.055011611 -0.54249716 1.575
0.059144851 -0.54284161 1.5760001
0.063203029 -0.54249716 1.575
0.06729874 -0.54249716 1.575
0.071394444 -0.54249716 1.575
0.075394303 -0.54180831 1.5730001
0.079484813 -0.54180831 1.5730001
0.083469056 -0.5411194 1.5710001
0.087442905 -0.54043055 1.5690001
0.091348015 -0.53939718 1.5660001
0.095237523 -0.53836387 1.5630001
0.099174961 -0.53767496 1.5610001
0.10303586 -0.53664166 1.5580001
0.10688116 -0.53560835 1.5550001
0.11071087 -0.53457499 1.552
0.11459889 -0.53388613 1.5500001
0.11847652 -0.53319722 1.5480001
0.12234376 -0.53250837 1.5460001
0.1262823 -0.53216392 1.5450001
0.13013133 -0.53147501 1.5430001
0.13405688 -0.53113055 1.5420001
0.13797726 -0.53078616 1.5410001
0.14198455 -0.53078616 1.5410001
0.14589711 -0.5304417 1.5400001
0.14990179 -0.5304417 1.5400001
0.15380654 -0.53009725 1.539
0.15770611 -0.52975279 1.5380001
0.16170561 -0.52975279 1.5380001
0.16559735 -0.52940834 1.5370001
0.1694839 -0.52906388 1.536
0.1732523 -0.52837503 1.534
0.17712587 -0.52803057 1.5330001
0.18099421 -0.52768612 1.5320001
0.18485735 -0.52734166 1.531
0.18859196 -0.52665281 1.529
0.1924421 -0.52630842 1.5280001
0.19628704 -0.5259639 1.5270001
0.2001268 -0.52561945 1.526
0.20396134 -0.52527505 1.5250001
0.20779067 -0.5249306 1.524
0.21161483 -0.5245862 1.5230001
0.21543376 -0.52424175 1.5220001
0.21924749 -0.52389723 1.521
0.22305606 -0.52355283 1.5200001
0.22715807 -0.52389723 1.521
0.23004971 -0.52148616 1.5140001
0.23506863 -0.52389723 1.521
0.23886679 -0.52355283 1.5200001
0.24281947 -0.52355283 1.5200001
0.24693449 -0.52389723 1.521
0.25121972 -0.5245862 1.5230001
0.25518018 -0.5245862 1.5230001
0.25948095 -0.52527505 1.5250001
0.26361942 -0.52561945 1.526
0.26793841 -0.52630842 1.5280001
0.27208984 -0.52665281 1.529
0.27642703 -0.52734166 1.531
0.28077465 -0.52803057 1.5330001
0.28513265 -0.52871948 1.5350001
0.28950101 -0.52940834 1.5370001
0.29407081 -0.5304417 1.5400001
0.2984626 -0.53113055 1.5420001
0.30306095 -0.53216392 1.5450001
0.30767494 -0.53319722 1.5480001
0.3123045 -0.53423059 1.5510001
0.31694967 -0.53526384 1.554
0.32202354 -0.53698605 1.559
0.32691431 -0.53836387 1.5630001
0.33182582 -0.53974164 1.567
0.33718687 -0.54180831 1.5730001
0.34214523 -0.54318607 1.577
0.34668529 -0.54387498 1.5790001
0.35434595 -0.54938602 1.595
0.37872216 -0.58038586 1.6850001
0.40288436 -0.6103524 1.7720001
0.42611924 -0.6382522 1.853
0.48184842 -0.70576298 2.049
0.51285517 -0.74296278 2.1570001
0.54658687 -0.78326261 2.2740002
0.59210348 -0.83940673 2.437
0.5969674 -0.83734012 2.4310002
0.60725969 -0.84285116 2.447
0.61487681 -0.84457338 2.4520001
0.62226659 -0.84595114 2.4560001
0.62967718 -0.8473289 2.46
0.63659143 -0.84801781 2.4620001
0.64377725 -0.84905118 2.4650002
0.65045112 -0.84939557 2.4660001
0.65686381 -0.84939557 2.4660001
0.66327655 -0.84939557 2.4660001
0.66941774 -0.84905118 2.4650002
0.67527944 -0.84836221 2.4630001
0.68085408 -0.8473289 2.46
0.68306059 -0.84216231 2.4450002
0.69167447 -0.84491783 2.4530001
0.69350022 -0.83940673 2.437
0.69926322 -0.83871788 2.4350002
0.70559531 -0.83871788 2.4350002
0.71134269 -0.83802897 2.4330001
0.7167846 -0.8369956 2.4300001
0.72250861 -0.83630681 2.4280002
0.72732162 -0.83458453 2.4230001
0.72998917 -0.83045119 2.411
0.7353428 -0.82941794 2.4080002
0.74068081 -0.82838464 2.4050002
0.74600309 -0.82735127 2.4020002
0.75162303 -0.82666236 2.4000001
0.75754839 -0.82631797 2.3990002
0.76378679 -0.82631797 2.3990002
0.77034628 -0.82666236 2.4000001
0.77723455 -0.82735127 2.4020002
0.78445935 -0.82838464 2.4050002
0.79202855 -0.82976234 2.4090002
0.80260092 -0.83424014 2.4220002
0.80889922 -0.83424014 2.4220002
0.81519759 -0.83424014 2.4220002
0.82183498 -0.83458453 2.4230001
0.82847762 -0.83492893 2.424
0.83615875 -0.83630681 2.4280002
0.84351355 -0.83734012 2.4310002
0.84878653 -0.83630681 2.4280002
0.86003095 -0.84112895 2.4420002
0.86709076 -0.8418178 2.444
0.87416106 -0.84250671 2.4460001
0.88088179 -0.84285116 2.447
0.88760763 -0.84319562 2.4480002
0.89032173 -0.83975124 2.4380002
0.89739716 -0.84044003 2.4400001
0.9041127 -0.84078455 2.4410002
0.91120631 -0.8414734 2.4430001
0.91793483 -0.8418178 2.444
0.92391211 -0.8414734 2.4430001
0.93064582 -0.8418178 2.444
0.93738472 -0.84216231 2.4450002
0.94374281 -0.84216231 2.4450002
0.94971234 -0.8418178 2.444
0.95606774 -0.8418178 2.444
0.96242326 -0.8418178 2.444
0.96877879 -0.8418178 2.444
0.97473532 -0.8414734 2.4430001
0.98108822 -0.8414734 2.4430001
0.9878453 -0.8418178 2.444
0.99460763 -0.84216231 2.4450002
1.0017844 -0.84285116 2.447
1.0081478 -0.84285116 2.447
1.0149257 -0.84319562 2.4480002
1.0217088 -0.84354007 2.4490001
1.0280774 -0.84354007 2.4490001
1.0340234 -0.84319562 2.4480002
1.0399643 -0.84285116 2.447
1.0454725 -0.84216231 2.4450002
1.05054 -0.84112895 2.4420002
1.0529951 -0.83802897 2.4330001
1.0575804 -0.83665121 2.4290001
1.0630208 -0.8359623 2.427
1.0666885 -0.83389562 2.421
1.0716547 -0.83286238 2.4180002
1.0708098 -0.82735127 2.4020002
1.0792981 -0.82907343 2.4070001
1.0787923 -0.82390684 2.3920002
1.0831982 -0.82252902 2.388
1.0880396 -0.82149577 2.3850002
1.0928652 -0.82046241 2.3820002
1.0990595 -0.82046241 2.3820002
1.1043258 -0.8197735 2.3800001
1.1100482 -0.8194291 2.3790002
1.1162348 -0.8194291 2.3790002
1.1224213 -0.8194291 2.3790002
1.1286076 -0.8194291 2.3790002
1.1367022 -0.82080686 2.3830001
1.1433786 -0.82115126 2.3840001
1.1572933 -0.82666236 2.4000001
-0.90212703 -0.55788648 1.6320001
-0.89788312 -0.55788648 1.6320001
-0.89418674 -0.55822831 1.6330001
-0.8899402 -0.55822831 1.6330001
-0.88623607 -0.55857015 1.6340001
-0.88198686 -0.55857015 1.6340001
-0.87827492 -0.55891198 1.6350001
-0.87455779 -0.55925381 1.636
-0.87030339 -0.55925381 1.636
-0.86604905 -0.55925381 1.636
-0.86179477 -0.55925381 1.636
-0.85701621 -0.55891198 1.6350001
-0.85172141 -0.55822831 1.6330001
-0.8469559 -0.55788648 1.6320001
-0.84167916 -0.55720276 1.6300001
-0.83589917 -0.55617726 1.6270001
-0.83064592 -0.55549359 1.6250001
-0.82438582 -0.5541262 1.6210001
-0.81915861 -0.55344248 1.6190001
-0.81394178 -0.55275881 1.6170001
-0.80873531 -0.55207515 1.6150001
-0.80353922 -0.55139142 1.613
-0.79835355 -0.55070776 1.6110001
-0.79317838 -0.55002409 1.6090001
-0.78850383 -0.54968226 1.608
-0.78285897 -0.5486567 1.605
-0.77820015 -0.54831487 1.6040001
-0.76823831 -0.54421276 1.5920001
-0.76361841 -0.54387093 1.5910001
-0.7590037 -0.54352909 1.59
-0.75439423 -0.54318726 1.5890001
-0.74979001 -0.54284537 1.5880001
-0.75035602 -0.54626381 1.598
-0.74526662 -0.54558015 1.5960001
-0.74065191 -0.54523826 1.595
-0.73558068 -0.54455459 1.5930001
-0.73143816 -0.54455459 1.5930001
-0.72638255 -0.54387093 1.5910001
-0.72133732 -0.54318726 1.5890001
-0.71675384 -0.54284537 1.5880001
-0.71172684 -0.5421617 1.5860001
-0.7071563 -0.54181987 1.585
-0.70259106 -0.54147804 1.5840001
-0.69803101 -0.54113621 1.5830001
-0.69391447 -0.54113621 1.5830001
-0.68979794 -0.54113621 1.5830001
-0.68568146 -0.54113621 1.5830001
-0.68113434 -0.54079431 1.582
-0.67659253 -0.54045248 1.5810001
-0.67205584 -0.54011065 1.58
-0.66710162 -0.53942698 1.5780001
-0.66215783 -0.53874332 1.5760001
-0.65722448 -0.53805965 1.5740001
-0.65271634 -0.53771776 1.5730001
-0.64780116 -0.53703409 1.5710001
-0.64330608 -0.53669226 1.5700001
-0.63963056 -0.53703409 1.5710001
-0.63514072 -0.53669226 1.5700001
-0.63105798 -0.53669226 1.5700001
-0.62737459 -0.53703409 1.5710001
-0.62368608 -0.53737593 1.572
-0.61959815 -0.53737593 1.572
-0.61551023 -0.53737593 1.572
-0.6114223 -0.53737593 1.572
-0.60694808 -0.53703409 1.5710001
-0.60209525 -0.53635043 1.5690001
-0.59763402 -0.53600854 1.5680001
-0.59279943 -0.53532487 1.5660001
-0.58797526 -0.53464121 1.5640001
-0.58353478 -0.53429937 1.5630001
-0.5787288 -0.53361565 1.5610001
-0.5743013 -0.53327382 1.5600001
-0.56987911 -0.53293198 1.559
-0.56546205 -0.53259015 1.5580001
-0.56141061 -0.53259015 1.5580001
-0.55700129 -0.53224826 1.557
-0.55259728 -0.53190649 1.5560001
-0.54819846 -0.53156459 1.5550001
-0.54380476 -0.53122276 1.554
-0.539069 -0.5305391 1.552
-0.53434366 -0.52985537 1.5500001
-0.52997077 -0.52951354 1.549
-0.52594268 -0.52951354 1.549
-0.52022994 -0.52780432 1.544
-0.51922387 -0.53088093 1.5530001
-0.51584882 -0.53156459 1.5550001
-0.51279253 -0.53259015 1.5580001
-0.50972062 -0.53361565 1.5610001
-0.50695705 -0.53498304 1.5650001
-0.50417274 -0.53635043 1.5690001
-0.50104874 -0.53737593 1.572
-0.49790925 -0.53840142 1.575
-0.49475417 -0.53942698 1.5780001
-0.49096158 -0.53976882 1.5790001
-0.48685551 -0.53976882 1.5790001
-0.48305508 -0.54011065 1.58
-0.47864324 -0.53976882 1.5790001
-0.47063026 -0.53532487 1.5660001
-0.46596208 -0.53464121 1.5640001
-0.46100897 -0.53361565 1.5610001
-0.45577878 -0.53224826 1.557
-0.45056936 -0.53088093 1.5530001
-0.44854352 -0.53327382 1.5600001
-0.44363207 -0.53224826 1.557
-0.43675989 -0.52882987 1.5470001
-0.43217751 -0.52814621 1.5450001
-0.42732847 -0.52712065 1.5420001
-0.42304406 -0.52677882 1.5410001
-0.41849285 -0.52609509 1.539
-0.4142215 -0.52575332 1.5380001
-0.41022199 -0.52575332 1.5380001
-0.40595832 -0.52541143 1.5370001
-0.40169993 -0.52506959 1.536
-0.39744672 -0.52472776 1.5350001
-0.39319873 -0.52438593 1.534
-0.38920963 -0.52438593 1.534
-0.38496941 -0.5240441 1.5330001
-0.38123143 -0.52438593 1.534
-0.37748829 -0.52472776 1.5350001
-0.37349659 -0.52472776 1.5350001
-0.36998633 -0.52541143 1.5370001
-0.36670381 -0.52643698 1.5400001
-0.36340567 -0.52746248 1.5430001
-0.36009192 -0.52848804 1.5460001
-0.35722321 -0.53019726 1.5510001
-0.35410079 -0.53156459 1.5550001
-0.35118264 -0.53327382 1.5600001
-0.34823853 -0.53498304 1.5650001
-0.34526843 -0.53669226 1.5700001
-0.34227228 -0.53840142 1.575
-0.33882073 -0.53942698 1.5780001
-0.33556566 -0.54079431 1.582
-0.33187079 -0.54147804 1.5840001
-0.3281655 -0.5421617 1.5860001
-0.32404119 -0.5421617 1.5860001
-0.32011861 -0.5425036 1.5870001
-0.31619075 -0.54284537 1.5880001
-0.31206125 -0.54284537 1.5880001
-0.30793175 -0.54284537 1.5880001
-0.30380225 -0.54284537 1.5880001
-0.29986143 -0.54318726 1.5890001
-0.29591542 -0.54352909 1.59
-0.29196423 -0.54387093 1.5910001
-0.2881887 -0.54455459 1.5930001
-0.28422451 -0.54489648 1.5940001
-0.28043079 -0.54558015 1.5960001
-0.27662668 -0.54626381 1.598
-0.27281219 -0.54694748 1.6
-0.2689873 -0.5476312 1.6020001
-0.26515198 -0.54831487 1.6040001
-0.26130626 -0.54899853 1.6060001
-0.25729007 -0.54934043 1.6070001
-0.25358367 -0.55036592 1.6100001
-0.24939692 -0.55036592 1.6100001
-0.2452102 -0.55036592 1.6100001
-0.24192169 -0.55241698 1.6160001
-0.23757225 -0.55207515 1.6150001
-0.23322801 -0.55173331 1.6140001
-0.22860518 -0.55070776 1.6110001
-0.22385867 -0.54934043 1.6070001
-0.21913292 -0.54797304 1.603
-0.21322107 -0.54352909 1.59
-0.20842886 -0.54181987 1.585
-0.20353374 -0.53976882 1.5790001
-0.19879614 -0.53805965 1.5740001
-0.19396082 -0.53600854 1.5680001
-0.18879342 -0.53293198 1.559
-0.18402833 -0.53088093 1.5530001
-0.17929444 -0.52882987 1.5470001
-0.17606461 -0.53122276 1.554
-0.1687026 -0.52096748 1.524
-0.16430713 -0.51960015 1.5200001
-0.16003795 -0.5185746 1.5170001
-0.15578438 -0.5175491 1.5140001
-0.15164672 -0.51686537 1.5120001
-0.14771482 -0.51686537 1.5120001
-0.14397314 -0.5175491 1.5140001
-0.14040603 -0.51891649 1.5180001
-0.13681813 -0.52028382 1.5220001
-0.133384 -0.52233487 1.5280001
-0.13025743 -0.52575332 1.5380001
-0.12732515 -0.53019726 1.5510001
-0.12400726 -0.53327382 1.5600001
-0.12041192 -0.53532487 1.5660001
-0.11671106 -0.53703409 1.5710001
-0.1129842 -0.53874332 1.5760001
-0.10909317 -0.53976882 1.5790001
-0.10518651 -0.54079431 1.582
-0.10120039 -0.54147804 1.5840001
-0.097203851 -0.5421617 1.5860001
-0.093138225 -0.5425036 1.5870001
-0.089011312 -0.5425036 1.5870001
-0.084937871 -0.54284537 1.5880001
-0.080808356 -0.54284537 1.5880001
-0.076630563 -0.5425036 1.5870001
-0.072503649 -0.5425036 1.5870001
-0.068333641 -0.5421617 1.5860001
-0.064168833 -0.54181987 1.585
-0.060047124 -0.54181987 1.585
-0.055854842 -0.54113621 1.5830001
-0.051705644 -0.54079431 1.582
-0.047561649 -0.54045248 1.5810001
-0.043450337 -0.54045248 1.5810001
-0.03931414 -0.54011065 1.58
-0.035205428 -0.54011065 1.58
-0.031096712 -0.54011065 1.58
-0.026970921 -0.53976882 1.5790001
-0.022864809 -0.53976882 1.5790001
-0.018758697 -0.53976882 1.5790001
-0.014661864 -0.54011065 1.58
-0.010553152 -0.54011065 1.58
-0.0064444393 -0.54011065 1.58
-0.0023357267 -0.54011065 1.58
0.0017729857 -0.54011065 1.58
0.0058816983 -0.54011065 1.58
0.0099967346 -0.54045248 1.5810001
0.0140902 -0.53976882 1.5790001
0.018207835 -0.54011065 1.58
0.022302425 -0.53976882 1.5790001
0.026408536 -0.53976882 1.5790001
0.03051465 -0.53976882 1.5790001
0.034620762 -0.53976882 1.5790001
0.03872687 -0.53976882 1.5790001
0.042832986 -0.53976882 1.5790001
0.046939097 -0.53976882 1.5790001
0.051077534 -0.54011065 1.58
0.055186249 -0.54011065 1.58
0.059294961 -0.54011065 1.58
0.063403673 -0.54011065 1.58
0.067512386 -0.54011065 1.58
0.071621098 -0.54011065 1.58
0.075633951 -0.53942698 1.5780001
0.079686932 -0.53908509 1.577
0.083734713 -0.53874332 1.5760001
0.087665826 -0.53771776 1.5730001
0.091639668 -0.53703409 1.5710001
0.095481247 -0.5356667 1.567
0.099429093 -0.53498304 1.5650001
0.10330039 -0.53395748 1.562
0.1071561 -0.53293198 1.559
0.11099621 -0.53190649 1.5560001
0.1148207 -0.53088093 1.5530001
0.11878266 -0.5305391 1.552
0.12266029 -0.52985537 1.5500001
0.12652752 -0.52917171 1.5480001
0.13038436 -0.52848804 1.5460001
0.1343177 -0.52814621 1.5450001
0.13824587 -0.52780432 1.544
0.14216883 -0.52746248 1.5430001
0.14618132 -0.52746248 1.5430001
0.15009648 -0.52712065 1.5420001
0.15400644 -0.52677882 1.5410001
0.15801373 -0.52677882 1.5410001
0.16202103 -0.52677882 1.5410001
0.16592057 -0.52643698 1.5400001
0.16981493 -0.52609509 1.539
0.17359114 -0.52541143 1.5370001
0.17747249 -0.52506959 1.536
0.18146677 -0.52506959 1.536
0.18534033 -0.52472776 1.5350001
0.18908535 -0.5240441 1.5330001
0.19281992 -0.52336037 1.531
0.19692977 -0.5237022 1.5320001
0.20091367 -0.5237022 1.5320001
0.20463006 -0.52301854 1.5300001
0.2084724 -0.52267671 1.529
0.21230957 -0.52233487 1.5280001
0.21614149 -0.52199304 1.5270001
0.21996823 -0.52165115 1.526
0.2237898 -0.52130938 1.5250001
0.22775547 -0.52130938 1.5250001
0.23172115 -0.52130938 1.5250001
0.23553228 -0.52096748 1.524
0.23965254 -0.52130938 1.5250001
0.24361822 -0.52130938 1.5250001
0.24774624 -0.52165115 1.526
0.25171453 -0.52165115 1.526
0.25585037 -0.52199304 1.5270001
0.25999144 -0.52233487 1.5280001
0.26413766 -0.52267671 1.529
0.26846445 -0.52336037 1.531
0.27262369 -0.5237022 1.5320001
0.27696869 -0.52438593 1.534
0.28132409 -0.52506959 1.536
0.28587565 -0.52609509 1.539
0.29025444 -0.52677882 1.5410001
0.29464367 -0.52746248 1.5430001
0.29923683 -0.52848804 1.5460001
0.30364943 -0.52917171 1.5480001
0.30827123 -0.53019726 1.5510001
0.31290856 -0.53122276 1.554
0.31756154 -0.53224826 1.557
0.3222301 -0.53327382 1.5600001
0.32712346 -0.53464121 1.5640001
0.3320376 -0.53600854 1.5680001
0.33718687 -0.53771776 1.5730001
0.3419283 -0.53874332 1.5760001
0.34646571 -0.53942698 1.5780001
0.35678971 -0.54899853 1.6060001
0.37894693 -0.57634592 1.6860001
0.40424854 -0.60779542 1.7780001
0.42404962 -0.63035703 1.8440001
0.48655167 -0.70727146 2.069
0.51856148 -0.74555779 2.181
0.55499959 -0.78931361 2.309
0.59356123 -0.83512044 2.4430001
0.59794962 -0.83238578 2.4350002
0.60850054 -0.83819705 2.4520001
0.61587989 -0.83956438 2.4560001
0.62328005 -0.84093177 2.46
0.63044512 -0.84195727 2.4630001
0.63736713 -0.842641 2.4650002
0.64429957 -0.84332466 2.467
0.65097868 -0.84366655 2.4680002
0.65739655 -0.84366655 2.4680002
0.66354549 -0.84332466 2.467
0.6696893 -0.84298283 2.4660001
0.67198944 -0.83785522 2.4510002
0.6778096 -0.83717155 2.4490001
0.68333995 -0.836146 2.4460001
0.68913668 -0.83546227 2.444
0.69520766 -0.83512044 2.4430001
0.70098621 -0.83443683 2.4410002
0.70646465 -0.83341128 2.4380002
0.71221977 -0.83272755 2.4360001
0.71766955 -0.83170205 2.4330001
0.72340131 -0.83101839 2.4310002
0.7291227 -0.83033466 2.4290001
0.73089749 -0.825207 2.414
0.73625886 -0.8241815 2.411
0.74191266 -0.82349783 2.4090002
0.74724537 -0.82247233 2.4060001
0.75318891 -0.8221305 2.4050002
0.7591272 -0.82178861 2.404
0.76537865 -0.82178861 2.404
0.77163017 -0.82178861 2.404
0.77852887 -0.82247233 2.4060001
0.78576404 -0.82349783 2.4090002
0.79663146 -0.82828361 2.4230001
0.80326366 -0.82862544 2.424
0.80956715 -0.82862544 2.424
0.81587064 -0.82862544 2.424
0.82251334 -0.82896733 2.4250002
0.82984483 -0.82999289 2.4280002
0.83719188 -0.83101839 2.4310002
0.84386051 -0.83136022 2.4320002
0.85403019 -0.83512044 2.4430001
0.8610875 -0.83580416 2.4450002
0.86850995 -0.83682972 2.4480002
0.87559056 -0.83751333 2.45
0.88232177 -0.83785522 2.4510002
0.88905799 -0.83819705 2.4520001
0.89543432 -0.83819705 2.4520001
0.90217841 -0.83853889 2.4530001
0.90818691 -0.83819705 2.4520001
0.91008735 -0.83409494 2.4400001
0.91680813 -0.83443683 2.4410002
0.92315578 -0.83443683 2.4410002
0.92988425 -0.83477867 2.4420002
0.93623453 -0.83477867 2.4420002
0.94258487 -0.83477867 2.4420002
0.94893521 -0.83477867 2.4420002
0.9548943 -0.83443683 2.4410002
0.96124202 -0.83443683 2.4410002
0.96758974 -0.83443683 2.4410002
0.97353834 -0.83409494 2.4400001
0.98028511 -0.83443683 2.4410002
0.987037 -0.83477867 2.4420002
0.99379402 -0.83512044 2.4430001
1.0005563 -0.83546227 2.444
1.0073239 -0.83580416 2.4450002
1.0140965 -0.836146 2.4460001
1.0208744 -0.83648783 2.447
1.0272378 -0.83648783 2.447
1.033601 -0.83648783 2.447
1.0395393 -0.836146 2.4460001
1.0454725 -0.83580416 2.4450002
1.0509702 -0.83512044 2.4430001
1.0534278 -0.83204389 2.434
1.0588865 -0.83136022 2.4320002
1.0643349 -0.8306765 2.4300001
1.0688916 -0.82930917 2.4260001
1.0729842 -0.82759988 2.421
1.0708098 -0.82110494 2.4020002
1.080195 -0.82349783 2.4090002
1.0792433 -0.81802839 2.3930001
1.0831982 -0.81631911 2.388
1.0875833 -0.81495178 2.3840001
1.0924064 -0.81392622 2.381
1.0981367 -0.81358439 2.3800001
1.1029338 -0.81255889 2.3770001
1.1086484 -0.81221706 2.3760002
1.1143578 -0.81187516 2.375
1.1200621 -0.81153333 2.3740001
1.1262356 -0.81153333 2.3740001
1.134317 -0.81290072 2.378
1.1405009 -0.81290072 2.378
1.1413805 -0.80914044 2.3670001
-0.90489089 -0.55533874 1.6370001
-0.90063399 -0.55533874 1.6370001
-0.89637703 -0.55533874 1.6370001
-0.89266509 -0.55567801 1.6380001
-0.88786316 -0.55533874 1.6370001
-0.88414598 -0.55567801 1.6380001
-0.88042361 -0.55601722 1.6390001
-0.87616152 -0.55601722 1.6390001
-0.87243128 -0.55635649 1.6400001
-0.86763716 -0.55601722 1.6390001
-0.86337507 -0.55601722 1.6390001
-0.85911286 -0.55601722 1.6390001
-0.85380763 -0.55533874 1.6370001
-0.84903175 -0.55499953 1.636
-0.84374464 -0.55432105 1.6340001
-0.83846802 -0.55364257 1.6320001
-0.83320177 -0.55296409 1.6300001
-0.82743728 -0.55194634 1.6270001
-0.82168847 -0.55092859 1.6240001
-0.81645864 -0.55025011 1.6220001
-0.81274134 -0.55058938 1.623
-0.80702639 -0.54957169 1.6200001
-0.80182248 -0.54889315 1.618
-0.79712206 -0.54855394 1.6170001
-0.79242671 -0.54821467 1.6160001
-0.78627336 -0.54685771 1.6120001
-0.78208148 -0.54685771 1.6120001
-0.77740693 -0.54651845 1.6110001
-0.76697809 -0.5421083 1.598
-0.76234525 -0.54176909 1.5970001
-0.7572428 -0.54109061 1.595
-0.75262296 -0.5407514 1.5940001
-0.75270385 -0.54380453 1.603
-0.74806839 -0.54346532 1.6020001
-0.74343812 -0.54312605 1.6010001
-0.73835129 -0.54244757 1.5990001
-0.73373395 -0.5421083 1.598
-0.72866535 -0.54142988 1.5960001
-0.72360712 -0.5407514 1.5940001
-0.71901059 -0.54041213 1.5930001
-0.7139706 -0.53973365 1.5910001
-0.70938712 -0.53939438 1.59
-0.70480883 -0.53905517 1.5890001
-0.70067674 -0.53905517 1.5890001
-0.69654465 -0.53905517 1.5890001
-0.69284821 -0.53939438 1.59
-0.6882804 -0.53905517 1.5890001
-0.68371773 -0.5387159 1.5880001
-0.67916024 -0.53837669 1.5870001
-0.67460799 -0.53803742 1.5860001
-0.66963816 -0.53735894 1.5840001
-0.66467869 -0.53668046 1.582
-0.65972972 -0.53600198 1.58
-0.65479112 -0.5353235 1.5780001
-0.65027523 -0.53498423 1.577
-0.64576459 -0.53464502 1.5760001
-0.64166629 -0.53464502 1.5760001
-0.63716346 -0.53430575 1.575
-0.63306773 -0.53430575 1.575
-0.62897199 -0.53430575 1.575
-0.62487632 -0.53430575 1.575
-0.62078059 -0.53430575 1.575
-0.61668485 -0.53430575 1.575
-0.61181128 -0.53362727 1.5730001
-0.60733438 -0.533288 1.572
-0.60247898 -0.53260958 1.5700001
-0.59763402 -0.5319311 1.5680001
-0.59279943 -0.53125262 1.5660001
-0.58797526 -0.53057414 1.5640001
-0.58316141 -0.5298956 1.562
-0.5787288 -0.52955639 1.5610001
-0.5743013 -0.52921712 1.5600001
-0.57024467 -0.52921712 1.5600001
-0.56582499 -0.52887785 1.559
-0.56177092 -0.52887785 1.559
-0.55771679 -0.52887785 1.559
-0.55330753 -0.52853864 1.5580001
-0.54890352 -0.52819943 1.557
-0.54415476 -0.52752095 1.5550001
-0.53976369 -0.52718168 1.554
-0.53503311 -0.52650321 1.552
-0.53065509 -0.526164 1.5510001
-0.52628225 -0.52582473 1.5500001
-0.52258849 -0.526164 1.5510001
-0.52156419 -0.52921712 1.5600001
-0.51651227 -0.52819943 1.557
-0.5134508 -0.52921712 1.5600001
-0.51037371 -0.53023487 1.5630001
-0.5076049 -0.53159183 1.567
-0.5048154 -0.53294879 1.5710001
-0.50168628 -0.53396654 1.5740001
-0.4985415 -0.53498423 1.577
-0.49506772 -0.53566277 1.5790001
-0.49127251 -0.53600198 1.58
-0.48716381 -0.53600198 1.58
-0.48336083 -0.53634125 1.5810001
-0.47894636 -0.53600198 1.58
-0.47093078 -0.53159183 1.567
-0.46626002 -0.53091335 1.5650001
-0.46130428 -0.5298956 1.562
-0.45607153 -0.52853864 1.5580001
-0.45434102 -0.53125262 1.5660001
-0.44911858 -0.5298956 1.562
-0.44391701 -0.52853864 1.5580001
-0.43732452 -0.52548546 1.549
-0.43245727 -0.52446777 1.5460001
-0.4278827 -0.52378929 1.544
-0.4235931 -0.52345002 1.5430001
-0.41930863 -0.52311081 1.5420001
-0.41502947 -0.5227716 1.5410001
-0.41075543 -0.52243233 1.5400001
-0.40648657 -0.52209306 1.539
-0.40222302 -0.52175385 1.5380001
-0.39822349 -0.52175385 1.5380001
-0.39396769 -0.52141458 1.5370001
-0.38997078 -0.52141458 1.5370001
-0.38572276 -0.52107531 1.536
-0.38172847 -0.52107531 1.536
-0.37798011 -0.52141458 1.5370001
-0.37422657 -0.52175385 1.5380001
-0.3707085 -0.52243233 1.5400001
-0.36718002 -0.52311081 1.5420001
-0.3638767 -0.5241285 1.5450001
-0.36055773 -0.52514625 1.5480001
-0.35768384 -0.52684247 1.5530001
-0.3545562 -0.52819943 1.557
-0.35163286 -0.5298956 1.562
-0.34868357 -0.53159183 1.567
-0.34548834 -0.53294879 1.5710001
-0.34248963 -0.53464502 1.5760001
-0.33925015 -0.53600198 1.58
-0.33598992 -0.53735894 1.5840001
-0.33249936 -0.53837669 1.5870001
-0.32857931 -0.5387159 1.5880001
-0.32465413 -0.53905517 1.5890001
-0.32072371 -0.53939438 1.59
-0.31678811 -0.53973365 1.5910001
-0.3126508 -0.53973365 1.5910001
-0.30870742 -0.54007292 1.5920001
-0.30456749 -0.54007292 1.5920001
-0.30042756 -0.54007292 1.5920001
-0.29647374 -0.54041213 1.5930001
-0.29269826 -0.54109061 1.595
-0.28891236 -0.54176909 1.5970001
-0.28493774 -0.5421083 1.598
-0.28113362 -0.54278678 1.6
-0.27731913 -0.54346532 1.6020001
-0.27349421 -0.5441438 1.6040001
-0.26965892 -0.54482228 1.6060001
-0.26597852 -0.54583997 1.6090001
-0.26195708 -0.54617923 1.6100001
-0.25793046 -0.54651845 1.6110001
-0.25405616 -0.54719692 1.613
-0.24986161 -0.54719692 1.613
-0.24566709 -0.54719692 1.613
-0.24222109 -0.54889315 1.618
-0.23786645 -0.54855394 1.6170001
-0.23337252 -0.54787546 1.6150001
-0.2287471 -0.54685771 1.6120001
-0.22399795 -0.54550076 1.608
-0.21913292 -0.54380453 1.603
-0.21322107 -0.53939438 1.59
-0.20842886 -0.53769815 1.585
-0.20340483 -0.5353235 1.5780001
-0.19854352 -0.533288 1.572
-0.19371343 -0.53125262 1.5660001
-0.18855122 -0.52819943 1.557
-0.18367283 -0.52582473 1.5500001
-0.18022163 -0.52752095 1.5550001
-0.17583802 -0.52650321 1.552
-0.16803843 -0.51496899 1.5180001
-0.16387475 -0.51429051 1.516
-0.15951048 -0.51293355 1.5120001
-0.15537281 -0.51225507 1.5100001
-0.15134582 -0.5119158 1.5090001
-0.14742173 -0.5119158 1.5090001
-0.14378296 -0.51293355 1.5120001
-0.14012855 -0.5139513 1.5150001
-0.13663834 -0.51564747 1.5200001
-0.13320941 -0.51768291 1.526
-0.13017273 -0.52141458 1.5370001
-0.12748933 -0.52684247 1.5530001
-0.12424574 -0.53023487 1.5630001
-0.12064259 -0.53227031 1.5690001
-0.11700822 -0.53430575 1.575
-0.11319927 -0.53566277 1.5790001
-0.10930043 -0.53668046 1.582
-0.10545248 -0.53803742 1.5860001
-0.10145594 -0.5387159 1.5880001
-0.097448997 -0.53939438 1.59
-0.093372971 -0.53973365 1.5910001
-0.089235656 -0.53973365 1.5910001
-0.085098334 -0.53973365 1.5910001
-0.080961019 -0.53973365 1.5910001
-0.076775417 -0.53939438 1.59
-0.072640702 -0.53939438 1.59
-0.068419814 -0.5387159 1.5880001
-0.064290293 -0.5387159 1.5880001
-0.060122896 -0.53837669 1.5870001
-0.055960696 -0.53803742 1.5860001
-0.051771015 -0.53735894 1.5840001
-0.047621813 -0.53701973 1.5830001
-0.043477818 -0.53668046 1.582
-0.039363902 -0.53668046 1.582
-0.035227709 -0.53634125 1.5810001
-0.031116394 -0.53634125 1.5810001
-0.026988002 -0.53600198 1.58
-0.022879288 -0.53600198 1.58
-0.018782457 -0.53634125 1.5810001
-0.014671145 -0.53634125 1.5810001
-0.010559832 -0.53634125 1.5810001
-0.0064525967 -0.53668046 1.582
-0.0023386832 -0.53668046 1.582
0.0017752299 -0.53668046 1.582
0.0058928658 -0.53701973 1.5830001
0.01000938 -0.53701973 1.5830001
0.014125894 -0.53701973 1.5830001
0.018242408 -0.53701973 1.5830001
0.022358922 -0.53701973 1.5830001
0.026475435 -0.53701973 1.5830001
0.030611277 -0.53735894 1.5840001
0.03473039 -0.53735894 1.5840001
0.038849503 -0.53735894 1.5840001
0.042995743 -0.53769815 1.585
0.047117457 -0.53769815 1.585
0.05123917 -0.53769815 1.585
0.055360891 -0.53769815 1.585
0.059520133 -0.53803742 1.5860001
0.063644446 -0.53803742 1.5860001
0.067726031 -0.53769815 1.585
0.071802415 -0.53735894 1.5840001
0.075873606 -0.53701973 1.5830001
0.079939581 -0.53668046 1.582
0.083947234 -0.53600198 1.58
0.087944485 -0.5353235 1.5780001
0.091872998 -0.53430575 1.575
0.095724985 -0.53294879 1.5710001
0.099683225 -0.53227031 1.5690001
0.10356493 -0.53125262 1.5660001
0.10743103 -0.53023487 1.5630001
0.11128154 -0.52921712 1.5600001
0.11511643 -0.52819943 1.557
0.11901227 -0.52752095 1.5550001
0.12289771 -0.52684247 1.5530001
0.12677273 -0.526164 1.5510001
0.13072169 -0.52582473 1.5500001
0.13466544 -0.52548546 1.549
0.13851447 -0.52480698 1.5470001
0.14244524 -0.52446777 1.5460001
0.14646554 -0.52446777 1.5460001
0.15038849 -0.5241285 1.5450001
0.15430623 -0.52378929 1.544
0.15832134 -0.52378929 1.544
0.16233644 -0.52378929 1.544
0.16624379 -0.52345002 1.5430001
0.17003562 -0.5227716 1.5410001
0.17392996 -0.52243233 1.5400001
0.17770357 -0.52175385 1.5380001
0.18158492 -0.52141458 1.5370001
0.18558182 -0.52141458 1.5370001
0.18933202 -0.5207361 1.5350001
0.19332372 -0.5207361 1.5350001
0.19718684 -0.52039683 1.534
0.20143825 -0.52107531 1.536
0.20516504 -0.52039683 1.534
0.20915413 -0.52039683 1.534
0.21300429 -0.52005762 1.5330001
0.21684922 -0.51971835 1.5320001
0.22083311 -0.51971835 1.5320001
0.22467026 -0.51937914 1.531
0.22850221 -0.51903987 1.5300001
0.23232894 -0.51870066 1.529
0.23630503 -0.51870066 1.529
0.24028112 -0.51870066 1.529
0.24425721 -0.51870066 1.529
0.24839565 -0.51903987 1.5300001
0.25237435 -0.51903987 1.5300001
0.25668815 -0.51971835 1.5320001
0.26067203 -0.51971835 1.5320001
0.26482868 -0.52005762 1.5330001
0.26916587 -0.5207361 1.5350001
0.27333549 -0.52107531 1.536
0.27751034 -0.52141458 1.5370001
0.28205672 -0.52243233 1.5400001
0.28643292 -0.52311081 1.5420001
0.2908195 -0.52378929 1.544
0.29540747 -0.52480698 1.5470001
0.29981747 -0.52548546 1.549
0.3042379 -0.526164 1.5510001
0.30886745 -0.52718168 1.554
0.31331131 -0.52786016 1.5560001
0.31796944 -0.52887785 1.559
0.32264322 -0.5298956 1.562
0.32733262 -0.53091335 1.5650001
0.33224937 -0.53227031 1.5690001
0.33718687 -0.53362727 1.5730001
0.34214523 -0.53498423 1.577
0.34646571 -0.5353235 1.5780001
0.35767835 -0.54617923 1.6100001
0.37939644 -0.57264006 1.6880001
0.40538535 -0.60486805 1.7830001
0.43370798 -0.63980997 1.886
0.49149013 -0.70901531 2.0900002
0.52878535 -0.75447369 2.2240002
0.5655756 -0.79823589 2.3530002
0.59307534 -0.82808918 2.4410002
0.59917742 -0.82774985 2.4400001
0.60626704 -0.8287676 2.4430001
0.61663216 -0.83419549 2.4590001
0.62404019 -0.83555245 2.4630001
0.63095707 -0.83623093 2.4650002
0.6378842 -0.83690935 2.467
0.64456075 -0.83724868 2.4680002
0.65124243 -0.83758789 2.4690001
0.65739655 -0.83724868 2.4680002
0.66058683 -0.83317775 2.4560001
0.66670203 -0.83283854 2.4550002
0.67281199 -0.83249933 2.4540002
0.67863995 -0.83182079 2.4520001
0.68389869 -0.83046383 2.4480002
0.68970066 -0.82978535 2.4460001
0.69577688 -0.82944614 2.4450002
0.70156056 -0.8287676 2.4430001
0.70704412 -0.82774985 2.4400001
0.71280456 -0.82707143 2.4380002
0.71855444 -0.82639295 2.4360001
0.72429401 -0.82571441 2.434
0.73002321 -0.82503599 2.4320002
0.7318058 -0.8199473 2.4170001
0.7374804 -0.81926888 2.4150002
0.74314457 -0.81859034 2.4130001
0.74879819 -0.81791186 2.411
0.75475478 -0.81757265 2.4100001
0.76102191 -0.81757265 2.4100001
0.76728892 -0.81757265 2.4100001
0.77323508 -0.81723338 2.4090002
0.78014672 -0.81791186 2.411
0.79065669 -0.82232201 2.424
0.79728901 -0.82266128 2.4250002
0.80392641 -0.82300049 2.4260001
0.80956715 -0.82232201 2.424
0.81654388 -0.82300049 2.4260001
0.82285249 -0.82300049 2.4260001
0.83052832 -0.82435745 2.4300001
0.83753628 -0.82503599 2.4320002
0.84767729 -0.8287676 2.4430001
0.85472941 -0.82944614 2.4450002
0.86214411 -0.83046383 2.4480002
0.86921948 -0.83114231 2.45
0.8763054 -0.83182079 2.4520001
0.88304168 -0.83216 2.4530001
0.8897832 -0.83249933 2.4540002
0.89616472 -0.83249933 2.4540002
0.90254623 -0.83249933 2.4540002
0.90855724 -0.83216 2.4530001
0.91456324 -0.83182079 2.4520001
0.920564 -0.83148158 2.4510002
0.92202121 -0.82707143 2.4380002
0.92874193 -0.82741064 2.4390001
0.93508434 -0.82741064 2.4390001
0.94104093 -0.82707143 2.4380002
0.94738084 -0.82707143 2.4380002
0.95332944 -0.82673216 2.437
0.95966679 -0.82673216 2.437
0.96600407 -0.82673216 2.437
0.97194237 -0.82639295 2.4360001
0.97867864 -0.82673216 2.437
0.98542023 -0.82707143 2.4380002
0.99216688 -0.82741064 2.4390001
0.9993282 -0.82808918 2.4410002
1.0060879 -0.82842839 2.4420002
1.0128527 -0.8287676 2.4430001
1.0196228 -0.82910681 2.444
1.0263982 -0.82944614 2.4450002
1.0327562 -0.82944614 2.4450002
1.0361395 -0.82707143 2.4380002
1.0420517 -0.82673216 2.437
1.048389 -0.82673216 2.437
1.0542935 -0.82639295 2.4360001
1.059322 -0.8253752 2.4330001
1.064773 -0.82469678 2.4310002
1.0697728 -0.82367903 2.4280002
1.0743139 -0.82232201 2.424
1.070364 -0.81451941 2.401
1.0748141 -0.81316251 2.3970001
1.0792433 -0.81180555 2.3930001
1.0827446 -0.80977005 2.3870001
1.0871272 -0.80841315 2.3830001
1.0914888 -0.80705619 2.3790002
1.0967524 -0.80637765 2.3770001
1.1015418 -0.8053599 2.3740001
1.1067821 -0.80468148 2.3720002
1.112481 -0.80434221 2.3710001
1.1177032 -0.80366373 2.3690002
1.1233891 -0.80332446 2.368
