# .PCD v0.7 - Point Cloud Data file format
VERSION 0.7
FIELDS x y z
SIZE 4 4 4
TYPE F F F
COUNT 1 1 1
WIDTH 1447
HEIGHT 1
VIEWPOINT 0 0 0 1 0 0 0
POINTS 1447
DATA ascii
-0.31215295 -1.1654556 0.91343826
-0.31490174 -1.1614915 0.91033137
-0.31784204 -1.1583203 0.90784585
-0.32054141 -1.1543562 0.90473896
-0.32366025 -1.1519777 0.90287477
-0.32653815 -1.1488063 0.90038919
-0.32962319 -1.1464279 0.898525
-0.33269262 -1.1440494 0.89666086
-0.33597961 -1.1424638 0.89541811
-0.33902043 -1.1400852 0.89355391
-0.34228399 -1.1384996 0.89231122
-0.34553713 -1.1369139 0.89106834
-0.34877992 -1.1353283 0.88982558
-0.35201228 -1.1337427 0.88858289
-0.35523424 -1.1321571 0.88734013
-0.35869715 -1.1313641 0.88671869
-0.36215487 -1.1305712 0.88609725
-0.36535081 -1.1289856 0.88485456
-0.36853635 -1.1274 0.8836118
-0.37171149 -1.1258143 0.88236892
-0.37514061 -1.1250215 0.88174748
-0.37829754 -1.1234359 0.88050479
-0.38144404 -1.1218503 0.87926203
-0.38458017 -1.1202645 0.87801927
-0.38743114 -1.1178861 0.87615514
-0.38998908 -1.1147147 0.87366951
-0.39252621 -1.1115435 0.87118405
-0.3950426 -1.1083722 0.86869848
-0.39753813 -1.1052008 0.8662129
-0.39972505 -1.1012367 0.86310601
-0.40217641 -1.0980654 0.86062044
-0.40431392 -1.0941013 0.85751355
-0.40642545 -1.0901372 0.8544066
-0.40880916 -1.0869658 0.85192102
-0.41087124 -1.0830017 0.84881407
-0.41321072 -1.0798304 0.84632856
-0.4155294 -1.0766591 0.84384298
-0.41813582 -1.0742806 0.84197885
-0.42103785 -1.0726949 0.84073603
-0.42361569 -1.0703164 0.83887184
-0.42681071 -1.0695237 0.83825052
-0.42968154 -1.0679381 0.83700782
-0.43318516 -1.0679381 0.83700782
-0.43668872 -1.0679381 0.83700782
-0.44019231 -1.0679381 0.83700782
-0.44402531 -1.0687308 0.83762914
-0.44819549 -1.0703164 0.83887184
-0.45204148 -1.0711093 0.83949327
-0.45622987 -1.0726949 0.84073603
-0.4597491 -1.0726949 0.84073603
-0.46498027 -1.0766591 0.84384298
-0.4688575 -1.0774519 0.84446442
-0.88752729 -1.5761402 1.2353165
0.50757378 -1.5607245 1.2167912
0.50195366 -1.5591351 1.215552
0.49634391 -1.5575458 1.2143129
0.49049401 -1.5551618 1.2124542
0.48515573 -1.5543671 1.2118347
0.47982267 -1.5535724 1.211215
0.47498047 -1.5543671 1.2118347
0.47013307 -1.5551618 1.2124542
0.46528047 -1.5559564 1.2130737
0.46089274 -1.5583404 1.2149323
0.45648941 -1.5607245 1.2167912
0.45184061 -1.5623138 1.2180302
0.44672695 -1.5623138 1.2180302
0.44138873 -1.5615191 1.2174106
0.43605563 -1.5607245 1.2167912
0.43028891 -1.5583404 1.2149323
0.42475468 -1.5567511 1.2136933
0.41901657 -1.5543671 1.2118347
0.41287082 -1.5503938 1.2087369
0.4075872 -1.5495991 1.2081174
0.40210232 -1.5480098 1.2068783
0.39683169 -1.5472152 1.2062588
0.3917675 -1.5472152 1.2062588
0.38690186 -1.5480098 1.2068783
0.38163906 -1.5472152 1.2062588
0.37696165 -1.5488045 1.2074978
0.37208301 -1.5495991 1.2081174
0.36738744 -1.5511885 1.2093565
0.36249581 -1.5519831 1.209976
0.35759899 -1.5527778 1.2105956
0.35287741 -1.5543671 1.2118347
0.34814537 -1.5559564 1.2130737
0.34322774 -1.5567511 1.2136933
0.33813232 -1.5567511 1.2136933
0.33320686 -1.5575458 1.2143129
0.32794145 -1.5567511 1.2136933
0.32268122 -1.5559564 1.2130737
0.31710178 -1.5535724 1.211215
0.31169757 -1.5519831 1.209976
0.30614674 -1.5495991 1.2081174
0.30045712 -1.5464205 1.2056392
0.29509193 -1.5448312 1.2044002
0.28958791 -1.5424472 1.2025415
0.28424612 -1.5408579 1.2013024
0.2793467 -1.5416524 1.2019219
0.27430066 -1.5416524 1.2019219
0.26939344 -1.5424472 1.2025415
0.26461723 -1.5440365 1.2037805
0.25983059 -1.5456258 1.2050196
0.25516453 -1.5480098 1.2068783
0.2503545 -1.5495991 1.2081174
0.24540825 -1.5503938 1.2087369
0.24045682 -1.5511885 1.2093565
0.23550017 -1.5519831 1.209976
0.23030238 -1.5511885 1.2093565
0.22510976 -1.5503938 1.2087369
0.21992235 -1.5495991 1.2081174
0.21485034 -1.5495991 1.2081174
0.20977829 -1.5495991 1.2081174
0.20481126 -1.5503938 1.2087369
0.19973664 -1.5503938 1.2087369
0.19486158 -1.5519831 1.209976
0.18997608 -1.5535724 1.211215
0.18517478 -1.5559564 1.2130737
0.1802659 -1.5575458 1.2143129
0.17552535 -1.5607245 1.2167912
0.17059046 -1.5623138 1.2180302
0.16556099 -1.5631086 1.2186497
0.16052632 -1.5639031 1.2192693
0.1553285 -1.5631086 1.2186497
0.15005954 -1.5615191 1.2174106
0.14457966 -1.5575458 1.2143129
0.13919698 -1.5543671 1.2118347
0.13376653 -1.5503938 1.2087369
0.1283621 -1.5464205 1.2056392
0.12292032 -1.5416524 1.2019219
0.1175705 -1.5376792 1.1988242
0.11230487 -1.5345005 1.1963459
0.10717116 -1.5329112 1.1951069
0.10204783 -1.5313218 1.1938677
0.096934915 -1.5297325 1.1926286
0.091832414 -1.5281432 1.1913896
0.086785465 -1.5273484 1.19077
0.081701167 -1.5257591 1.189531
0.076627277 -1.5241698 1.1882919
0.071489081 -1.5209911 1.1858137
0.028789578 -1.0521381 0.82028079
0.025326662 -1.0513434 0.81966114
0.021835862 -1.0489594 0.81780255
0.018360669 -1.0465754 0.8159439
0.014901083 -1.0441914 0.81408525
0.011465841 -1.0426021 0.81284618
0.0080348663 -1.0402181 0.81098753
0.0046159606 -1.0370394 0.80850935
0.0012187985 -1.0346555 0.8066507
-0.0021627571 -1.0322714 0.80479205
-0.0055329725 -1.0306821 0.80355299
-0.0088927839 -1.0290928 0.80231386
-0.012242191 -1.0275035 0.8010748
-0.015593263 -1.0267087 0.80045521
-0.018939132 -1.0259141 0.79983562
-0.022279801 -1.0251194 0.79921615
-0.02563514 -1.0251194 0.79921615
-0.028990477 -1.0251194 0.79921615
-0.032320738 -1.0243248 0.79859656
-0.035673477 -1.0243248 0.79859656
-0.038995937 -1.0235301 0.79797709
-0.04228032 -1.0219407 0.79673791
-0.045554295 -1.0203514 0.79549885
-0.048665553 -1.0155835 0.7917816
-0.05182695 -1.0124048 0.78930336
-0.054967552 -1.0092262 0.78682524
-0.058087338 -1.0060475 0.784347
-0.080229118 -0.95598346 0.74531549
-0.08321958 -0.95439416 0.74407643
-0.086199634 -0.95280474 0.74283725
-0.089318275 -0.95280474 0.74283725
-0.092591122 -0.95439416 0.74407643
-0.095555566 -0.95280474 0.74283725
-0.099250294 -0.95836747 0.74717414
-0.1752449 -1.5456258 1.2050196
-0.18076742 -1.5495991 1.2081174
-0.18641126 -1.5543671 1.2118347
-0.19238003 -1.5615191 1.2174106
-0.19819458 -1.5670818 1.2217475
-0.20383936 -1.5710552 1.2248452
-0.20940444 -1.5742338 1.2273233
-0.2147737 -1.5758231 1.2285624
-0.22004247 -1.5766177 1.229182
-0.22508942 -1.5758231 1.2285624
-0.23013116 -1.5750284 1.2279429
-0.23504899 -1.5734391 1.2267039
-0.23995641 -1.5718497 1.2254647
-0.24472955 -1.5694659 1.2236061
-0.24948704 -1.5670818 1.2217475
-0.25448719 -1.5662872 1.2211279
-0.25948209 -1.5654925 1.2205085
-0.26447183 -1.5646979 1.2198888
-0.26973021 -1.5654925 1.2205085
-0.27513325 -1.5670818 1.2217475
-0.28054675 -1.5686711 1.2229866
-0.28611538 -1.5710552 1.2248452
-0.29155225 -1.5726445 1.2260842
-0.29714948 -1.5750284 1.2279429
-0.30291483 -1.578207 1.2304211
-0.30870101 -1.5813857 1.2328993
-0.31450799 -1.5845644 1.2353776
-0.32017541 -1.5869485 1.2372361
-0.32553264 -1.5877432 1.2378558
-0.33072951 -1.5877432 1.2378558
-0.33559009 -1.5861537 1.2366166
-0.3402696 -1.5837698 1.2347579
-0.34424013 -1.578207 1.2304211
-0.34676674 -1.5662872 1.2211279
-0.30291721 -1.1919994 0.92932111
-0.3047733 -1.1840527 0.92312568
-0.30740598 -1.1792848 0.91940838
-0.30979767 -1.173722 0.91507149
-0.31236529 -1.168954 0.91135418
-0.31490174 -1.164186 0.90763688
-0.31784204 -1.1610074 0.90515876
-0.32054141 -1.1570342 0.90206105
-0.32343748 -1.1538553 0.8995828
-0.32631278 -1.1506766 0.89710456
-0.32939523 -1.1482927 0.89524591
-0.33246204 -1.1459086 0.89338726
-0.33551326 -1.1435246 0.89152861
-0.33831313 -1.1403461 0.88905048
-0.34156892 -1.1387568 0.88781142
-0.34457332 -1.1363727 0.88595277
-0.34780568 -1.1347835 0.88471371
-0.35102767 -1.133194 0.88347453
-0.35423917 -1.1316047 0.88223547
-0.35744032 -1.1300154 0.88099641
-0.36088505 -1.1292207 0.88037682
-0.364068 -1.1276313 0.87913764
-0.36724052 -1.126042 0.87789857
-0.37040263 -1.1244527 0.87665951
-0.37381876 -1.1236581 0.87603998
-0.37696269 -1.1220686 0.87480086
-0.3800962 -1.1204793 0.8735618
-0.3832193 -1.11889 0.87232274
-0.38633201 -1.1173006 0.87108356
-0.38887957 -1.114122 0.86860543
-0.39140633 -1.1109434 0.86612725
-0.39419487 -1.1085594 0.8642686
-0.39639741 -1.1045861 0.86117089
-0.39886171 -1.1014074 0.85869265
-0.40130526 -1.0982287 0.85621446
-0.40343499 -1.0942554 0.85311675
-0.40583426 -1.0910767 0.85063851
-0.40821278 -1.087898 0.84816033
-0.41057044 -1.0847193 0.84568214
-0.41321072 -1.0823355 0.84382355
-0.41583538 -1.0799514 0.8419649
-0.41844442 -1.0775675 0.84010625
-0.42103785 -1.0751834 0.83824754
-0.42392951 -1.0735941 0.83700848
-0.42744347 -1.0735941 0.83700848
-0.43031949 -1.0720048 0.83576941
-0.43382832 -1.0720048 0.83576941
-0.4373371 -1.0720048 0.83576941
-0.44084591 -1.0720048 0.83576941
-0.44468409 -1.0727993 0.83638895
-0.44852749 -1.0735941 0.83700848
-0.4523761 -1.0743887 0.83762813
-0.45622987 -1.0751834 0.83824754
-0.46042868 -1.0767727 0.83948672
-0.46498027 -1.0791568 0.84134537
-0.4689163 -1.0720048 0.83576941
0.50246537 -1.5643368 1.2131789
0.4968504 -1.5627437 1.2119434
0.49099529 -1.5603541 1.2100903
0.48589984 -1.5603541 1.2100903
0.48055896 -1.5595576 1.2094725
0.47570896 -1.5603541 1.2100903
0.47085375 -1.5611507 1.210708
0.46623102 -1.5627437 1.2119434
0.46183285 -1.5651332 1.2137965
0.45695427 -1.5659297 1.2144144
0.45230025 -1.5675226 1.2156497
0.4471814 -1.5675226 1.2156497
0.44183797 -1.5667262 1.2150321
0.43627769 -1.5651332 1.2137965
0.43072775 -1.5635402 1.2125611
0.4251883 -1.5619471 1.2113256
0.41944501 -1.5595576 1.2094725
0.41329405 -1.5555751 1.2063839
0.40800524 -1.5547787 1.2057663
0.40272158 -1.5539821 1.2051486
0.39723933 -1.5523891 1.2039132
0.39216992 -1.5523891 1.2039132
0.38729909 -1.5531856 1.2045308
0.38203108 -1.5523891 1.2039132
0.37734848 -1.5539821 1.2051486
0.37246466 -1.5547787 1.2057663
0.36776388 -1.5563716 1.2070018
0.36286703 -1.557168 1.2076194
0.35796499 -1.5579646 1.2082372
0.3530578 -1.5587611 1.2088549
0.34814537 -1.5595576 1.2094725
0.34322774 -1.5603541 1.2100903
0.33830491 -1.5611507 1.210708
0.33320686 -1.5611507 1.210708
0.32827625 -1.5619471 1.2113256
0.32284603 -1.5603541 1.2100903
0.31758839 -1.5595576 1.2094725
0.31217638 -1.5579646 1.2082372
0.30661774 -1.5555751 1.2063839
0.30107471 -1.5531856 1.2045308
0.29554734 -1.5507962 1.2026778
0.29018468 -1.549203 1.2014424
0.28483248 -1.54761 1.200207
0.27992269 -1.5484066 1.2008247
0.27486625 -1.5484066 1.2008247
0.2699486 -1.549203 1.2014424
0.26516199 -1.5507962 1.2026778
0.26023135 -1.5515926 1.2032955
0.2554265 -1.5531856 1.2045308
0.25061128 -1.5547787 1.2057663
0.24578561 -1.5563716 1.2070018
0.24070318 -1.5563716 1.2070018
0.23562077 -1.5563716 1.2070018
0.23042035 -1.5555751 1.2063839
0.22522515 -1.5547787 1.2057663
0.22014792 -1.5547787 1.2057663
0.21496052 -1.5539821 1.2051486
0.20988588 -1.5539821 1.2051486
0.20502122 -1.5555751 1.2063839
0.20004378 -1.5563716 1.2070018
0.1951609 -1.5579646 1.2082372
0.19026761 -1.5595576 1.2094725
0.18555309 -1.5627437 1.2119434
0.18072577 -1.5651332 1.2137965
0.17597221 -1.5683192 1.2162675
0.17102431 -1.5699122 1.2175028
0.16606601 -1.5715052 1.2187382
0.16093417 -1.5715052 1.2187382
0.15572333 -1.5707088 1.2181206
0.15044136 -1.5691158 1.2168852
0.14502226 -1.5659297 1.2144144
0.13955279 -1.5619471 1.2113256
0.13417792 -1.5587611 1.2088549
0.12875788 -1.5547787 1.2057663
0.12323713 -1.549203 1.2014424
0.11793507 -1.5460171 1.1989716
0.1125375 -1.5412381 1.1952653
0.10733782 -1.5388485 1.1934122
0.1022067 -1.5372554 1.1921767
0.097035632 -1.5348659 1.1903236
0.091927923 -1.5332729 1.1890882
0.086830616 -1.5316799 1.1878529
0.081743725 -1.530087 1.1866174
0.076667227 -1.528494 1.185382
0.071489081 -1.5245113 1.1822934
0.028724344 -1.0521837 0.81599253
0.025250087 -1.0505906 0.81475705
0.021769693 -1.0482012 0.812904
0.018304905 -1.0458117 0.81105089
0.014855723 -1.0434221 0.80919766
0.011422145 -1.0410326 0.80734456
0.0080041755 -1.038643 0.80549145
0.0045982748 -1.0354571 0.80302066
0.001214118 -1.0330676 0.80116749
-0.0021544322 -1.030678 0.79931438
-0.0055116424 -1.029085 0.79807895
-0.0088584488 -1.027492 0.79684353
-0.01219485 -1.0258991 0.79560816
-0.015532917 -1.0251025 0.79499042
-0.018880451 -1.0251025 0.79499042
-0.022210715 -1.0243059 0.79437268
-0.025535779 -1.0235095 0.79375505
-0.028878111 -1.0235095 0.79375505
-0.032220442 -1.0235095 0.79375505
-0.035535101 -1.0227129 0.79313731
-0.038844556 -1.0219165 0.79251957
-0.04211593 -1.0203234 0.79128414
-0.045376901 -1.0187304 0.79004872
-0.048551314 -1.0155444 0.78757793
-0.051664233 -1.011562 0.78448945
-0.054794423 -1.0083759 0.78201854
-0.057903808 -1.0051899 0.77954769
-0.060604509 -0.99563175 0.7721352
-0.063549303 -0.99085277 0.76842898
-0.066462874 -0.98607373 0.7647227
-0.069457814 -0.98288769 0.76225191
-0.071843058 -0.97173661 0.75360399
-0.074770376 -0.96855062 0.75113314
-0.07767687 -0.96536452 0.74866229
-0.080429196 -0.96058559 0.74495602
-0.083496749 -0.95978904 0.74433839
-0.086487211 -0.95819604 0.74310291
-0.089616254 -0.95819604 0.74310291
-0.092899501 -0.95978904 0.74433839
-0.096113443 -0.96058559 0.74495602
-0.099250294 -0.96058559 0.74495602
-0.10289653 -0.96536452 0.74866229
-0.18095282 -1.5547787 1.2057663
-0.18650657 -1.5587611 1.2088549
-0.19247791 -1.5659297 1.2144144
-0.19839559 -1.5723017 1.2193559
-0.20404558 -1.5762843 1.2224444
-0.20961584 -1.5794702 1.2249153
-0.21499032 -1.5810633 1.2261508
-0.2203752 -1.5826563 1.2273861
-0.22554345 -1.5826563 1.2273861
-0.23047949 -1.5810633 1.2261508
-0.23552383 -1.5802667 1.225533
-0.24032035 -1.5778773 1.2236798
-0.24522519 -1.5762843 1.2224444
-0.24999309 -1.5738947 1.2205913
-0.25500363 -1.5730983 1.2199737
-0.26000896 -1.5723017 1.2193559
-0.26500908 -1.5715052 1.2187382
-0.27014095 -1.5715052 1.2187382
-0.27555183 -1.5730983 1.2199737
-0.28097311 -1.5746913 1.221209
-0.28640482 -1.5762843 1.2224444
-0.29199421 -1.5786737 1.2242976
-0.29759926 -1.5810633 1.2261508
-0.30337241 -1.5842493 1.2286215
-0.3091664 -1.5874354 1.2310923
-0.31482342 -1.5898248 1.2329456
-0.32049608 -1.5922143 1.2347987
-0.3360945 -1.5922143 1.2347987
-0.34078178 -1.5898248 1.2329456
-0.34458679 -1.5834528 1.2280039
-0.34711862 -1.5715052 1.2187382
-0.30231139 -1.1923686 0.9247092
-0.3047733 -1.1867932 0.92038524
-0.30740598 -1.1820141 0.91667902
-0.30979767 -1.1764386 0.91235495
-0.31257766 -1.172456 0.90926647
-0.31511667 -1.1676769 0.9055602
-0.31784204 -1.1636945 0.90247166
-0.32054141 -1.159712 0.89938319
-0.32343748 -1.1565259 0.89691228
-0.32608742 -1.1525433 0.89382362
-0.32916728 -1.1501539 0.89197063
-0.33200094 -1.1469678 0.88949978
-0.33504695 -1.1445782 0.88764662
-0.33784163 -1.1413924 0.88517582
-0.34085384 -1.1390028 0.88332272
-0.34360948 -1.1358167 0.88085181
-0.34683141 -1.1342237 0.87961644
-0.350043 -1.1326308 0.87838107
-0.35324413 -1.1310377 0.87714559
-0.35643488 -1.1294447 0.87591016
-0.35961518 -1.1278516 0.87467468
-0.36278516 -1.1262587 0.87343937
-0.36620387 -1.1254622 0.87282169
-0.36935556 -1.1238691 0.87158614
-0.37276131 -1.1230726 0.87096852
-0.37589481 -1.1214797 0.86973315
-0.37901789 -1.1198866 0.86849767
-0.38213059 -1.1182936 0.86726224
-0.38523293 -1.1167006 0.86602688
-0.38804746 -1.1143111 0.86417371
-0.39056641 -1.1111251 0.86170292
-0.39334714 -1.1087356 0.85984981
-0.39582703 -1.1055495 0.8573789
-0.39799836 -1.101567 0.85429037
-0.40043414 -1.098381 0.85181957
-0.40284902 -1.0951951 0.84934878
-0.4052431 -1.0920089 0.84687793
-0.40791458 -1.0896194 0.84502476
-0.41026968 -1.0864334 0.84255397
-0.4129073 -1.0840439 0.84070081
-0.4155294 -1.0816544 0.8388477
-0.41844442 -1.0800614 0.83761233
-0.42166021 -1.0792649 0.83699459
-0.42455706 -1.0776718 0.8357591
-0.42775989 -1.0768753 0.83514148
-0.43095747 -1.0760789 0.83452374
-0.43447152 -1.0760789 0.83452374
-0.43798548 -1.0760789 0.83452374
-0.44149947 -1.0760789 0.83452374
-0.44534293 -1.0768753 0.83514148
-0.44885951 -1.0768753 0.83514148
-0.4523761 -1.0768753 0.83514148
-0.45622987 -1.0776718 0.8357591
-0.4597491 -1.0776718 0.8357591
-0.46326828 -1.0776718 0.8357591
0.51633674 -1.5791256 1.2181888
0.50964129 -1.5743357 1.2144936
0.50297701 -1.5695456 1.2107984
0.49735686 -1.5679489 1.2095667
0.4917472 -1.5663521 1.2083349
0.48664394 -1.5663521 1.2083349
0.48129529 -1.5655538 1.207719
0.47643748 -1.5663521 1.2083349
0.47157446 -1.5671506 1.2089508
0.46694392 -1.5687473 1.2101824
0.46230292 -1.570344 1.2114143
0.45765156 -1.5719407 1.212646
0.45275992 -1.572739 1.213262
0.44763589 -1.572739 1.213262
0.44228721 -1.5719407 1.212646
0.43672171 -1.570344 1.2114143
0.43116662 -1.5687473 1.2101824
0.42540514 -1.5663521 1.2083349
0.41965923 -1.5639571 1.2064873
0.41414055 -1.5623605 1.2052555
0.40842327 -1.5599655 1.2034079
0.40292799 -1.5583688 1.2021762
0.39785078 -1.5583688 1.2021762
0.39277357 -1.5583688 1.2021762
0.38769633 -1.5583688 1.2021762
0.38281512 -1.559167 1.202792
0.3779287 -1.5599655 1.2034079
0.37303707 -1.5607637 1.2040237
0.36814028 -1.5615621 1.2046397
0.36323828 -1.5623605 1.2052555
0.35833102 -1.5631588 1.2058713
0.3532382 -1.5631588 1.2058713
0.34832317 -1.5639571 1.2064873
0.34340292 -1.5647556 1.2071031
0.33847752 -1.5655538 1.207719
0.33354691 -1.5663521 1.2083349
0.32844365 -1.5663521 1.2083349
0.32334045 -1.5663521 1.2083349
0.31791279 -1.5647556 1.2071031
0.31265518 -1.5639571 1.2064873
0.30724573 -1.5623605 1.2052555
0.30169231 -1.5599655 1.2034079
0.29630631 -1.5583688 1.2021762
0.29078147 -1.5559738 1.2003286
0.28556544 -1.5551753 1.1997128
0.28035465 -1.5543771 1.1990969
0.27543181 -1.5551753 1.1997128
0.27050379 -1.5559738 1.2003286
0.26557055 -1.556772 1.2009444
0.26063213 -1.5575705 1.2015603
0.25568849 -1.5583688 1.2021762
0.25086805 -1.5599655 1.2034079
0.24603717 -1.5615621 1.2046397
0.24094956 -1.5615621 1.2046397
0.23586193 -1.5615621 1.2046397
0.23065631 -1.5607637 1.2040237
0.22557127 -1.5607637 1.2040237
0.22037348 -1.5599655 1.2034079
0.21518087 -1.559167 1.202792
0.21020862 -1.5599655 1.2034079
0.20523117 -1.5607637 1.2040237
0.20035091 -1.5623605 1.2052555
0.19536045 -1.5631588 1.2058713
0.19065632 -1.5663521 1.2083349
0.18593137 -1.5695456 1.2107984
0.18109366 -1.5719407 1.212646
0.17632969 -1.5751339 1.2151095
0.17145815 -1.577529 1.2169571
0.16640268 -1.5783274 1.2175729
0.161342 -1.5791256 1.2181888
0.15603921 -1.577529 1.2169571
0.15074682 -1.5759324 1.2157253
0.14539109 -1.5735373 1.2138777
0.13997978 -1.570344 1.2114143
0.13458928 -1.5671506 1.2089508
0.12915365 -1.5631588 1.2058713
0.12355393 -1.556772 1.2009444
0.11811735 -1.551982 1.1972493
0.11271197 -1.547192 1.193554
0.10750449 -1.5447969 1.1917064
0.10236558 -1.5432003 1.1904747
0.0971867 -1.5408051 1.188627
0.092023432 -1.5384101 1.1867794
0.086875774 -1.5360152 1.1849319
0.081786275 -1.5344183 1.1837001
0.076707177 -1.5328217 1.1824684
0.032038592 -1.0506216 0.81048357
0.028637366 -1.0514199 0.81109941
0.025173515 -1.0498232 0.80986768
0.021703523 -1.0474281 0.80802006
0.018249139 -1.0450331 0.80617249
0.014810362 -1.0426382 0.80432487
0.011378449 -1.0394447 0.80186141
0.0079734847 -1.0370497 0.80001378
0.004580589 -1.0338563 0.79755032
0.0012085014 -1.0306629 0.79508674
-0.0021444429 -1.028268 0.79323924
-0.0054860464 -1.0266712 0.79200745
-0.0088241138 -1.0258729 0.79139161
-0.012156977 -1.0250745 0.79077572
-0.015484642 -1.0242763 0.79015988
-0.018807102 -1.0234779 0.78954405
-0.022124359 -1.0226794 0.78892815
-0.025456289 -1.0226794 0.78892815
-0.028788216 -1.0226794 0.78892815
-0.032095071 -1.0218811 0.78831226
-0.035396721 -1.0210828 0.78769636
-0.038693175 -1.0202845 0.78708053
-0.041984424 -1.0194861 0.78646463
-0.045234989 -1.0178895 0.78523296
-0.048360918 -1.0138978 0.78215361
-0.051501505 -1.0107043 0.77969009
-0.054621298 -1.0075109 0.77722663
-0.057720277 -1.0043175 0.77476311
-0.060652994 -0.99872917 0.77045208
-0.063447133 -0.99154413 0.76490927
-0.066409193 -0.98755234 0.76182991
-0.069345243 -0.98356068 0.75875056
-0.071960837 -0.97557712 0.75259185
-0.074893355 -0.97238374 0.75012839
-0.07786914 -0.9699887 0.74828076
-0.080695957 -0.96599698 0.74520147
-0.083773918 -0.9651987 0.74458557
-0.086846672 -0.96440035 0.74396974
-0.089988723 -0.96440035 0.74396974
-0.093207881 -0.9651987 0.74458557
-0.096751012 -0.96919048 0.74766493
-0.099990964 -0.9699887 0.74828076
-0.10323613 -0.97078711 0.74889666
-0.10683648 -0.97477877 0.75197601
-0.11019254 -0.97637552 0.75320774
-0.19286954 -1.572739 1.213262
-0.1984961 -1.5767307 1.2163413
-0.2043549 -1.5823191 1.2206522
-0.20993297 -1.5855124 1.2231157
-0.21531524 -1.5871092 1.2243475
-0.220597 -1.5879074 1.2249633
-0.22577047 -1.5879074 1.2249633
-0.23082782 -1.5871092 1.2243475
-0.23587997 -1.5863109 1.2237315
-0.24080561 -1.5847142 1.2224998
-0.24572083 -1.5831174 1.2212681
-0.25062567 -1.5815207 1.2200364
-0.25552011 -1.5799241 1.2188046
-0.26053581 -1.5791256 1.2181888
-0.26554635 -1.5783274 1.2175729
-0.27068862 -1.5783274 1.2175729
-0.27597037 -1.5791256 1.2181888
-0.28139949 -1.5807225 1.2194206
-0.28683898 -1.5823191 1.2206522
-0.29243621 -1.5847142 1.2224998
-0.29804903 -1.5871092 1.2243475
-0.30367744 -1.5895042 1.2261951
-0.30947664 -1.5926976 1.2286587
-0.31529662 -1.595891 1.231122
-0.34510678 -1.5895042 1.2261951
-0.34676674 -1.5735373 1.2138777
-0.30190751 -1.1935253 0.92072415
-0.30456874 -1.1887352 0.9170289
-0.30719882 -1.1839452 0.91333371
-0.30979767 -1.1791551 0.90963846
-0.31257766 -1.1751634 0.90655911
-0.31533164 -1.1711717 0.90347981
-0.31784204 -1.1663816 0.89978456
-0.32054141 -1.1623899 0.89670527
-0.32343748 -1.1591965 0.89424175
-0.32608742 -1.1552047 0.89116228
-0.32893932 -1.1520113 0.88869888
-0.33177039 -1.1488179 0.88623536
-0.33458063 -1.1456246 0.88377196
-0.33737013 -1.1424313 0.88130856
-0.34013876 -1.1392379 0.87884504
-0.3428866 -1.1360444 0.87638152
-0.34610075 -1.1344478 0.87514979
-0.34905836 -1.1320527 0.87330216
-0.35224906 -1.130456 0.87207037
-0.35542941 -1.1288593 0.8708387
-0.35859933 -1.1272626 0.86960697
-0.36175892 -1.1256659 0.86837524
-0.36516717 -1.1248676 0.86775935
-0.36830848 -1.123271 0.86652762
-0.3717038 -1.1224725 0.86591172
-0.37482691 -1.1208758 0.86467999
-0.3782092 -1.1200776 0.86406416
-0.38131407 -1.1184808 0.86283243
-0.38440862 -1.1168841 0.86160064
-0.38721532 -1.1144891 0.85975301
-0.38972646 -1.1112958 0.85728961
-0.39249939 -1.1089008 0.85544199
-0.3952567 -1.1065056 0.85359436
-0.39742282 -1.1025139 0.85051501
-0.39985338 -1.0993207 0.84805155
-0.40255603 -1.0969256 0.84620398
-0.40494755 -1.0937322 0.84374046
-0.40761644 -1.0913372 0.8418929
-0.40996888 -1.0881437 0.83942938
-0.4129073 -1.086547 0.83819765
-0.41583538 -1.0849504 0.83696592
-0.41875303 -1.0833538 0.83573419
-0.42197141 -1.0825554 0.83511835
-0.42487088 -1.0809586 0.83388656
-0.42807627 -1.0801603 0.83327067
-0.43159544 -1.0801603 0.83327067
-0.43511468 -1.0801603 0.83327067
-0.4383097 -1.079362 0.83265483
-0.44182628 -1.079362 0.83265483
-0.44534293 -1.079362 0.83265483
-0.44885951 -1.079362 0.83265483
-0.45204148 -1.0785636 0.83203894
-0.45555547 -1.0785636 0.83203894
-0.45940933 -1.079362 0.83265483
-0.46258348 -1.0785636 0.83203894
-0.4664425 -1.079362 0.83265483
-0.46926388 -1.0777652 0.83142304
-0.47416985 -1.0729753 0.82772791
-0.47731027 -1.0721769 0.82711202
0.51633674 -1.5827637 1.2145507
0.50964129 -1.5779626 1.2108667
0.50348866 -1.5747619 1.2084105
0.49786332 -1.5731615 1.2071825
0.49249908 -1.5723612 1.2065685
0.48714 -1.5715611 1.2059546
0.48203158 -1.5715611 1.2059546
0.47716597 -1.5723612 1.2065685
0.4725354 -1.5739617 1.2077966
0.46765679 -1.5747619 1.2084105
0.46300802 -1.5763623 1.2096387
0.45834884 -1.5779626 1.2108667
0.4534494 -1.5787628 1.2114806
0.44809031 -1.5779626 1.2108667
0.44273648 -1.5771624 1.2102526
0.43716577 -1.575562 1.2090247
0.43160546 -1.5739617 1.2077966
0.42605561 -1.5723612 1.2065685
0.4205161 -1.570761 1.2053404
0.4147754 -1.5683603 1.2034984
0.40905035 -1.5659598 1.2016562
0.40375367 -1.5651596 1.2010422
0.39866602 -1.5651596 1.2010422
0.39357841 -1.5651596 1.2010422
0.3884908 -1.5651596 1.2010422
0.38340318 -1.5651596 1.2010422
0.37870234 -1.5667599 1.2022702
0.37380034 -1.5675602 1.2028842
0.36889312 -1.5683603 1.2034984
0.36379507 -1.5683603 1.2034984
0.35888004 -1.5691605 1.2041123
0.35377944 -1.5691605 1.2041123
0.3488566 -1.5699607 1.2047263
0.34375337 -1.5699607 1.2047263
0.33882272 -1.570761 1.2053404
0.33388689 -1.5715611 1.2059546
0.32877845 -1.5715611 1.2059546
0.32367003 -1.5715611 1.2059546
0.31856158 -1.5715611 1.2059546
0.31313398 -1.5699607 1.2047263
0.30787373 -1.5691605 1.2041123
0.30230987 -1.5667599 1.2022702
0.29676169 -1.5643593 1.2004281
0.29152745 -1.5635593 1.1998141
0.28615183 -1.5619589 1.1985861
0.28093064 -1.5611587 1.1979721
0.27585599 -1.5611587 1.1979721
0.27078137 -1.5611587 1.1979721
0.26584294 -1.5619589 1.1985861
0.26089931 -1.562759 1.1992
0.25595045 -1.5635593 1.1998141
0.25099641 -1.5643593 1.2004281
0.24616297 -1.5659598 1.2016562
0.24119592 -1.5667599 1.2022702
0.23610309 -1.5667599 1.2022702
0.23101027 -1.5667599 1.2022702
0.22568667 -1.5651596 1.2010422
0.22059904 -1.5651596 1.2010422
0.21551141 -1.5651596 1.2010422
0.21053135 -1.5659598 1.2016562
0.20565109 -1.5675602 1.2028842
0.20065802 -1.5683603 1.2034984
0.19575956 -1.5699607 1.2047263
0.191045 -1.5731615 1.2071825
0.18630967 -1.5763623 1.2096387
0.18146154 -1.5787628 1.2114806
0.17668718 -1.5819635 1.2139368
0.17180525 -1.5843641 1.2157789
0.16673936 -1.5851642 1.2163929
0.16166827 -1.5859644 1.2170069
0.15643404 -1.5851642 1.2163929
0.15112866 -1.5835638 1.2151649
0.14568615 -1.5803632 1.2127088
0.1403356 -1.5779626 1.2108667
0.1349321 -1.5747619 1.2084105
0.12961538 -1.5723612 1.2065685
0.12444099 -1.5715611 1.2059546
0.11908951 -1.5683603 1.2034984
0.11463122 -1.5771624 1.2102526
0.10750449 -1.5483558 1.1881475
0.10231262 -1.5459552 1.1863055
0.0971867 -1.5443548 1.1850773
0.092118949 -1.5435547 1.1844634
0.08719185 -1.5451549 1.1856915
0.081913933 -1.5403539 1.1820072
0.076906934 -1.5403539 1.1820072
0.031965554 -1.0506414 0.80622113
0.028528644 -1.0498412 0.80560702
0.025096942 -1.049041 0.80499303
0.021637354 -1.0466405 0.80315089
0.018179433 -1.0434397 0.80069476
0.014753661 -1.0410392 0.7988528
0.011334753 -1.0378385 0.79639661
0.0079366555 -1.0346377 0.79394048
0.004559366 -1.0314369 0.79148436
0.0012038209 -1.0290364 0.78964221
-0.002136118 -1.0266359 0.78780019
-0.0054647168 -1.0250355 0.7865721
-0.0087829111 -1.0234351 0.785344
-0.012100169 -1.022635 0.78473008
-0.015424296 -1.022635 0.78473008
-0.018733751 -1.0218347 0.78411597
-0.022038003 -1.0210345 0.78350192
-0.025356928 -1.0210345 0.78350192
-0.02867585 -1.0210345 0.78350192
-0.0319697 -1.0202345 0.78288794
-0.035258345 -1.0194342 0.78227389
-0.03854179 -1.018634 0.78165984
-0.041787159 -1.0170337 0.78043181
-0.045022119 -1.0154333 0.77920377
-0.048170518 -1.0122325 0.77674764
-0.051338788 -1.009832 0.77490556
-0.054448169 -1.0066313 0.77244937
-0.057536747 -1.0034306 0.76999331
-0.060556028 -0.99942964 0.76692313
-0.063344963 -0.99222791 0.76139688
-0.066301815 -0.98822701 0.75832677
-0.069288954 -0.9850263 0.75587064
-0.072137497 -0.98022521 0.75218642
-0.075077817 -0.9770245 0.74973029
-0.077997319 -0.97382373 0.74727422
-0.080962725 -0.97142327 0.74543214
-0.084051087 -0.97062302 0.74481809
-0.087134242 -0.96982276 0.74420404
-0.090361193 -0.97062302 0.74481809
-0.093824632 -0.97382373 0.74727422
-0.097069792 -0.97462392 0.74788821
-0.10023785 -0.97462392 0.74788821
-0.10357572 -0.9762243 0.7491163
-0.10709898 -0.97942507 0.75157249
-0.11046285 -0.98102546 0.75280046
-0.11411522 -0.9850263 0.75587064
-0.11760302 -0.98742688 0.75771272
-0.20445798 -1.5867645 1.217621
-0.21014437 -1.5907655 1.2206912
-0.21564016 -1.5931661 1.2225332
-0.22092973 -1.5939662 1.2231472
-0.22611101 -1.5939662 1.2231472
-0.23117615 -1.5931661 1.2225332
-0.23635481 -1.5931661 1.2225332
-0.24129085 -1.5915656 1.2213051
-0.24621651 -1.5899653 1.220077
-0.25113174 -1.588365 1.2188491
-0.25616568 -1.5875647 1.218235
-0.26106268 -1.5859644 1.2170069
-0.26608363 -1.5851642 1.2163929
-0.27109939 -1.5843641 1.2157789
-0.27638894 -1.5851642 1.2163929
-0.28182584 -1.5867645 1.217621
-0.28727317 -1.588365 1.2188491
-0.29258353 -1.5891651 1.219463
-0.29834887 -1.5923659 1.2219192
-0.30398253 -1.5947664 1.2237613
-0.30978689 -1.5979671 1.2262175
-0.31545433 -1.6003677 1.2280594
-0.30170554 -1.1954747 0.91736048
-0.3043642 -1.1906736 0.91367626
-0.30719882 -1.1866727 0.91060615
-0.30979767 -1.1818715 0.90692198
-0.31257766 -1.1778706 0.90385181
-0.31533164 -1.1738697 0.90078169
-0.31805956 -1.1698687 0.89771146
-0.32054141 -1.1650678 0.89402735
-0.32343748 -1.1618669 0.89157122
-0.32608742 -1.157866 0.88850099
-0.32871136 -1.1538651 0.88543087
-0.33153984 -1.1506643 0.8829748
-0.33434749 -1.1474636 0.88051862
-0.33689857 -1.1434627 0.8774485
-0.33966205 -1.140262 0.87499243
-0.34240469 -1.1370612 0.8725363
-0.34512651 -1.1338605 0.87008011
-0.34831986 -1.1322601 0.86885208
-0.35125402 -1.1298596 0.86701
-0.35442397 -1.1282592 0.86578196
-0.35758349 -1.1266589 0.86455393
-0.36073261 -1.1250584 0.86332577
-0.36413053 -1.1242584 0.86271185
-0.36726144 -1.122658 0.86148375
-0.37064633 -1.1218578 0.86086977
-0.374026 -1.1210575 0.86025566
-0.3771309 -1.1194571 0.85902756
-0.38049757 -1.1186571 0.85841364
-0.38358429 -1.1170566 0.85718548
-0.38638318 -1.1146561 0.8553434
-0.3891665 -1.1122556 0.85350144
-0.3922168 -1.1106552 0.85227329
-0.39468634 -1.1074544 0.84981716
-0.39684728 -1.1034535 0.84674704
-0.39956298 -1.101053 0.8449049
-0.40197009 -1.0978522 0.84244883
-0.40465194 -1.0954517 0.84060669
-0.40731823 -1.0930511 0.83876461
-0.40996888 -1.0906506 0.83692253
-0.4129073 -1.0890502 0.83569449
-0.41583538 -1.0874499 0.83446646
-0.41875303 -1.0858495 0.83323836
-0.42197141 -1.0850494 0.83262438
-0.42518464 -1.0842491 0.83201033
-0.42839268 -1.0834489 0.83139628
-0.43191445 -1.0834489 0.83139628
-0.43543628 -1.0834489 0.83139628
-0.43895808 -1.0834489 0.83139628
-0.44215307 -1.0826488 0.83078223
-0.4456723 -1.0826488 0.83078223
-0.44885951 -1.0818486 0.83016825
-0.45204148 -1.0810484 0.8295542
-0.45555547 -1.0810484 0.8295542
-0.45838991 -1.0794481 0.82832617
-0.46121392 -1.0778477 0.82709813
-0.46402746 -1.0762472 0.82586998
-0.46683067 -1.0746469 0.82464194
-0.46927324 -1.0722463 0.82279986
-0.47240585 -1.0714462 0.82218587
-0.47553322 -1.0706459 0.82157177
-0.47829741 -1.0690457 0.82034373
0.51633674 -1.5864016 1.2109128
0.50989968 -1.5823915 1.2078519
0.50400037 -1.5799855 1.2060155
0.49836981 -1.5783814 1.2047909
0.49300036 -1.5775795 1.2041788
0.4878841 -1.5775795 1.2041788
0.48276788 -1.5775795 1.2041788
0.47789446 -1.5783814 1.2047909
0.47325608 -1.5799855 1.2060155
0.46860731 -1.5815896 1.2072397
0.46371308 -1.5823915 1.2078519
0.4588137 -1.5831935 1.2084641
0.45390907 -1.5839956 1.2090764
0.44854477 -1.5831935 1.2084641
0.44318572 -1.5823915 1.2078519
0.43783185 -1.5815896 1.2072397
0.43226373 -1.5799855 1.2060155
0.42670605 -1.5783814 1.2047909
0.42115876 -1.5767773 1.2035667
0.41562188 -1.5751734 1.2023423
0.41030443 -1.5743713 1.20173
0.4051986 -1.5743713 1.20173
0.39988893 -1.5735693 1.2011178
0.39498693 -1.5743713 1.20173
0.38988107 -1.5743713 1.20173
0.38497129 -1.5751734 1.2023423
0.37986284 -1.5751734 1.2023423
0.3747544 -1.5751734 1.2023423
0.36964598 -1.5751734 1.2023423
0.36472315 -1.5759753 1.2029544
0.35961211 -1.5759753 1.2029544
0.35450107 -1.5759753 1.2029544
0.34939003 -1.5759753 1.2029544
0.34445417 -1.5767773 1.2035667
0.33934054 -1.5767773 1.2035667
0.33422691 -1.5767773 1.2035667
0.32944804 -1.5783814 1.2047909
0.32432923 -1.5783814 1.2047909
0.3190482 -1.5775795 1.2041788
0.31377235 -1.5767773 1.2035667
0.30834472 -1.5751734 1.2023423
0.30292749 -1.5735693 1.2011178
0.29752067 -1.5719652 1.1998935
0.29197505 -1.5695591 1.1980569
0.28659159 -1.567955 1.1968324
0.28136262 -1.5671531 1.1962203
0.27613878 -1.5663511 1.195608
0.27119774 -1.5671531 1.1962203
0.26611534 -1.5671531 1.1962203
0.26116648 -1.567955 1.1968324
0.25621241 -1.5687571 1.1974447
0.25125322 -1.5695591 1.1980569
0.24641454 -1.5711632 1.1992812
0.24144229 -1.5719652 1.1998935
0.23634426 -1.5719652 1.1998935
0.23124623 -1.5719652 1.1998935
0.22614819 -1.5719652 1.1998935
0.22105016 -1.5719652 1.1998935
0.21595213 -1.5719652 1.1998935
0.21096167 -1.5727671 1.2005056
0.20596603 -1.5735693 1.2011178
0.20106754 -1.5751734 1.2023423
0.19625844 -1.5775795 1.2041788
0.19153088 -1.5807874 1.2066276
0.18668796 -1.5831935 1.2084641
0.18192141 -1.5864016 1.2109128
0.17704466 -1.5888077 1.2127494
0.17206554 -1.5904117 1.2139738
0.16707604 -1.5920157 1.2151983
0.16191298 -1.5920157 1.2151983
0.15667094 -1.5912137 1.214586
0.15135776 -1.5896097 1.2133616
0.14605498 -1.5880057 1.2121373
0.14076258 -1.5864016 1.2109128
0.13534349 -1.5831935 1.2084641
0.13007712 -1.5815896 1.2072397
0.12482116 -1.5799855 1.2060155
0.11969711 -1.5799855 1.2060155
0.11463122 -1.5807874 1.2066276
0.10944903 -1.5799855 1.2060155
0.031892516 -1.0506502 0.80196959
0.028441668 -1.0490462 0.80074525
0.025001226 -1.0474422 0.79952085
0.021554643 -1.0450361 0.79768431
0.018109726 -1.0418279 0.79523551
0.014685619 -1.0386199 0.79278672
0.011282317 -1.0354117 0.79033792
0.0078998264 -1.0322037 0.78788924
0.0045381435 -1.0289956 0.78544044
0.0011982044 -1.0265895 0.78360391
-0.0021277934 -1.0249856 0.78237951
-0.0054433867 -1.0233814 0.78115511
-0.008748576 -1.0217774 0.77993071
-0.012052828 -1.0209754 0.77931851
-0.015363949 -1.0209754 0.77931851
-0.01867507 -1.0209754 0.77931851
-0.02196892 -1.0201733 0.77870637
-0.02527744 -1.0201733 0.77870637
-0.028563485 -1.0193713 0.77809417
-0.031844329 -1.0185694 0.77748203
-0.035119969 -1.0177673 0.77686977
-0.038360134 -1.0161632 0.77564543
-0.041622773 -1.0153612 0.77503324
-0.044844724 -1.0137571 0.77380884
-0.047980122 -1.0105491 0.7713601
-0.051135384 -1.0081431 0.7695235
-0.054231763 -1.0049349 0.7670747
-0.057353213 -1.0025288 0.76523817
-0.060410578 -0.99932075 0.76278937
-0.063242793 -0.99290454 0.75789189
-0.066248134 -0.98969644 0.75544316
-0.069232665 -0.98648834 0.7529943
-0.072196387 -0.9832803 0.75054562
-0.075200796 -0.98087424 0.74870902
-0.078189589 -0.97846812 0.74687248
-0.081229486 -0.9768641 0.74564803
-0.084328249 -0.97606206 0.74503589
-0.08749371 -0.97606206 0.74503589
-0.090659164 -0.97606206 0.74503589
-0.094133019 -0.97927016 0.74748462
-0.097388573 -0.98007214 0.74809682
-0.10064934 -0.98087424 0.74870902
-0.10400021 -0.98247826 0.74993336
-0.10744898 -0.98488432 0.75176996
-0.11082324 -0.98648834 0.7529943
-0.11430062 -0.9888944 0.7548309
-0.11788893 -0.99210256 0.75727969
-0.12130221 -0.99370664 0.75850409
-0.2104615 -1.596828 1.2188714
-0.21585678 -1.5984319 1.2200958
-0.22115155 -1.599234 1.220708
-0.22645153 -1.6000361 1.2213202
-0.23152448 -1.599234 1.220708
-0.23671095 -1.599234 1.220708
-0.2416548 -1.5976299 1.2194835
-0.24671215 -1.596828 1.2188714
-0.25163779 -1.5952238 1.217647
-0.25668213 -1.5944219 1.2170348
-0.26158956 -1.5928178 1.2158103
-0.2666209 -1.5920157 1.2151983
-0.27164707 -1.5912137 1.214586
-0.27694702 -1.5920157 1.2151983
-0.28225219 -1.5928178 1.2158103
-0.28756261 -1.5936198 1.2164226
-0.29302549 -1.5952238 1.217647
-0.29849881 -1.596828 1.2188714
-0.30428755 -1.6000361 1.2213202
-0.30994201 -1.6024421 1.2231568
-0.31545433 -1.6040461 1.224381
-0.3015036 -1.1974204 0.91400045
-0.3043642 -1.1934104 0.91093951
-0.30719882 -1.1894002 0.90787858
-0.30979767 -1.1845881 0.90420544
-0.31257766 -1.180578 0.9011445
-0.31554657 -1.1773698 0.89869571
-0.31827715 -1.1733598 0.89563477
-0.32076153 -1.1685476 0.89196157
-0.32321477 -1.1637354 0.88828844
-0.32586208 -1.1597253 0.8852275
-0.3284834 -1.1557152 0.88216656
-0.33130929 -1.1525071 0.87971777
-0.33388117 -1.148497 0.87665683
-0.33642706 -1.1444869 0.87359595
-0.33918533 -1.1412787 0.8711471
-0.34192273 -1.1380706 0.8686983
-0.34439582 -1.1340606 0.86563742
-0.34733519 -1.1316545 0.86380076
-0.35025898 -1.1292485 0.86196434
-0.3534185 -1.1276444 0.86073983
-0.35656762 -1.1260403 0.85951555
-0.35970637 -1.1244364 0.85829115
-0.36283469 -1.1228323 0.85706675
-0.36621433 -1.1220303 0.85645449
-0.36958888 -1.1212283 0.85584241
-0.37295812 -1.1204262 0.85523021
-0.37632218 -1.1196241 0.85461795
-0.37968105 -1.1188222 0.85400581
-0.38303474 -1.1180202 0.85339355
-0.38582844 -1.1156141 0.85155702
-0.38860655 -1.1132079 0.84972042
-0.39165166 -1.111604 0.84849608
-0.39411598 -1.1083959 0.84604734
-0.39655948 -1.1051878 0.84359848
-0.39927262 -1.1027818 0.84176207
-0.4016771 -1.0995736 0.83931327
-0.40435633 -1.0971676 0.83747667
-0.40702003 -1.0947614 0.83564001
-0.40996888 -1.0931574 0.83441567
-0.4129073 -1.0915534 0.83319134
-0.4155294 -1.0891473 0.83135474
-0.41875303 -1.0883453 0.8307426
-0.42197141 -1.0875432 0.8301304
-0.42518464 -1.0867412 0.8295182
-0.42870903 -1.0867412 0.8295182
-0.43191445 -1.0859393 0.828906
-0.43543628 -1.0859393 0.828906
-0.43895808 -1.0859393 0.828906
-0.44247988 -1.0859393 0.828906
-0.4456723 -1.0851371 0.82829374
-0.44885951 -1.0843352 0.82768166
-0.45204148 -1.0835332 0.8270694
-0.45488107 -1.0819292 0.82584506
-0.4580501 -1.081127 0.82523286
-0.46087149 -1.0795231 0.82400846
-0.46333745 -1.077117 0.82217193
-0.46613547 -1.0755129 0.82094753
-0.46892306 -1.0739089 0.81972313
-0.47170019 -1.0723048 0.81849873
-0.47446701 -1.0707008 0.81727433
0.51659775 -1.5908434 1.2078853
0.51015812 -1.5868242 1.2048335
0.50425619 -1.5844126 1.2030025
0.4988763 -1.5836087 1.2023922
0.49375227 -1.5836087 1.2023922
0.48838016 -1.5828049 1.2017817
0.48350421 -1.5836087 1.2023922
0.47862294 -1.5844126 1.2030025
0.47397676 -1.5860202 1.2042232
0.46908256 -1.5868242 1.2048335
0.46441817 -1.5884318 1.2060542
0.45951098 -1.5892358 1.2066646
0.45436871 -1.5892358 1.2066646
0.44899923 -1.5884318 1.2060542
0.44385958 -1.5884318 1.2060542
0.43827587 -1.5868242 1.2048335
0.43292201 -1.5860202 1.2042232
0.42735654 -1.5844126 1.2030025
0.42201567 -1.5836087 1.2023922
0.41646835 -1.582001 1.2011714
0.41134953 -1.582001 1.2011714
0.40623069 -1.582001 1.2011714
0.40090802 -1.5811971 1.2005612
0.39599299 -1.582001 1.2011714
0.39087415 -1.582001 1.2011714
0.38595134 -1.5828049 1.2017817
0.3808299 -1.5828049 1.2017817
0.37570846 -1.5828049 1.2017817
0.37058702 -1.5828049 1.2017817
0.36565119 -1.5836087 1.2023922
0.36052713 -1.5836087 1.2023922
0.3552227 -1.5828049 1.2017817
0.35027906 -1.5836087 1.2023922
0.345155 -1.5836087 1.2023922
0.34003097 -1.5836087 1.2023922
0.33490694 -1.5836087 1.2023922
0.32995027 -1.5844126 1.2030025
0.32482365 -1.5844126 1.2030025
0.31953481 -1.5836087 1.2023922
0.31441078 -1.5836087 1.2023922
0.30897272 -1.582001 1.2011714
0.30354506 -1.5803933 1.1999507
0.29797605 -1.5779817 1.1981196
0.29257181 -1.5763738 1.1968989
0.28703138 -1.5739623 1.1950678
0.28179461 -1.5731585 1.1944575
0.27656296 -1.5723546 1.1938472
0.27147532 -1.5723546 1.1938472
0.2663877 -1.5723546 1.1938472
0.26130006 -1.5723546 1.1938472
0.25634342 -1.5731585 1.1944575
0.25138158 -1.5739623 1.1950678
0.24654031 -1.5755701 1.1962886
0.24168867 -1.5771778 1.1975093
0.23658544 -1.5771778 1.1975093
0.23160018 -1.5779817 1.1981196
0.22649433 -1.5779817 1.1981196
0.2213885 -1.5779817 1.1981196
0.21639286 -1.5787857 1.19873
0.21139199 -1.5795894 1.1993403
0.2064909 -1.5811971 1.2005612
0.20157942 -1.5828049 1.2017817
0.19675732 -1.5852165 1.2036128
0.19191958 -1.5876281 1.2054439
0.18716083 -1.5908434 1.2078853
0.18238126 -1.5940588 1.2103267
0.17749152 -1.5964704 1.2121577
0.1724994 -1.5980783 1.2133784
0.16741271 -1.5988821 1.2139887
0.16223925 -1.5988821 1.2139887
0.1569868 -1.5980783 1.2133784
0.15166321 -1.5964704 1.2121577
0.14635004 -1.5948627 1.210937
0.14104724 -1.593255 1.2097163
0.13575487 -1.5916474 1.2084956
0.13047288 -1.5900395 1.2072749
0.12520131 -1.5884318 1.2060542
0.12006167 -1.5884318 1.2060542
0.11492202 -1.5884318 1.2060542
0.10972682 -1.5876281 1.2054439
0.031795137 -1.0498441 0.79711884
0.028332945 -1.0474325 0.79528779
0.024905508 -1.0458249 0.79406714
0.021471933 -1.0434133 0.79223597
0.01804002 -1.0401978 0.78979462
0.014628918 -1.0369823 0.78735322
0.011238622 -1.0337669 0.78491175
0.0078691356 -1.0305514 0.78247041
0.0045239949 -1.0281398 0.78063929
0.0011935239 -1.0249244 0.77819794
-0.0021178038 -1.0225128 0.77636689
-0.0054220571 -1.021709 0.77575654
-0.008714241 -1.0201012 0.77453583
-0.012005488 -1.0192974 0.77392542
-0.015303604 -1.0192974 0.77392542
-0.018601719 -1.0192974 0.77392542
-0.021899834 -1.0192974 0.77392542
-0.025178079 -1.0184935 0.77331519
-0.028451119 -1.0176897 0.77270478
-0.031718958 -1.0168858 0.77209443
-0.034981593 -1.0160819 0.77148402
-0.038208753 -1.0144742 0.77026337
-0.041392632 -1.0120625 0.76843232
-0.044596378 -1.0104549 0.76721168
-0.047751643 -1.0080433 0.76538056
-0.050891299 -1.0056317 0.76354951
-0.054015353 -1.0032201 0.76171839
-0.057123803 -1.0008085 0.75988734
-0.060265124 -0.99920082 0.75866663
-0.063140623 -0.99357378 0.75439429
-0.066140763 -0.99035835 0.75195289
-0.069176383 -0.98794675 0.75012183
-0.072255284 -0.98633909 0.74890113
-0.075262286 -0.98392749 0.74707007
-0.078381859 -0.9831236 0.74645966
-0.081429556 -0.98151582 0.74523896
-0.084605418 -0.98151582 0.74523896
-0.087781288 -0.98151582 0.74523896
-0.091255121 -0.98473126 0.74768037
-0.094518498 -0.9855352 0.74829072
-0.097707368 -0.9855352 0.74829072
-0.10097854 -0.98633909 0.74890113
-0.10425491 -0.98714286 0.74951142
-0.10771148 -0.98955446 0.75134248
-0.11109355 -0.99116218 0.75256312
-0.11457873 -0.99357378 0.75439429
-0.11807953 -0.99598539 0.75622535
-0.12149801 -0.9975931 0.75744599
-0.12482641 -0.99839699 0.7580564
-0.21056721 -1.6012936 1.2158198
-0.21607339 -1.6037053 1.217651
-0.22137336 -1.6045091 1.2182612
-0.22667855 -1.6053131 1.2188716
-0.23187283 -1.6053131 1.2188716
-0.23706709 -1.6053131 1.2188716
-0.24201873 -1.6037053 1.217651
-0.24720781 -1.6037053 1.217651
-0.25214386 -1.6020975 1.2164302
-0.2571986 -1.6012936 1.2158198
-0.26224813 -1.6004899 1.2152095
-0.2672925 -1.5996859 1.2145991
-0.27233166 -1.5988821 1.2139887
-0.2775051 -1.5988821 1.2139887
-0.2828207 -1.5996859 1.2145991
-0.28799677 -1.5996859 1.2145991
-0.29332012 -1.6004899 1.2152095
-0.29894859 -1.6029015 1.2170405
-0.30459261 -1.6053131 1.2188716
-0.31009713 -1.6069207 1.2200923
-0.30130166 -1.1993626 0.91064423
-0.3043642 -1.1961471 0.90820277
-0.30719882 -1.1921278 0.90515101
-0.31000742 -1.1881084 0.90209919
-0.31279001 -1.1840891 0.89904749
-0.31576154 -1.1808738 0.89660609
-0.31849471 -1.1768544 0.89355439
-0.32076153 -1.1712273 0.88928187
-0.32321477 -1.1664041 0.88561976
-0.32586208 -1.1623849 0.882568
-0.3284834 -1.1583656 0.87951624
-0.33107874 -1.1543462 0.87646455
-0.33364803 -1.150327 0.87341285
-0.33595556 -1.1455038 0.86975068
-0.33870861 -1.1422883 0.86730921
-0.34095889 -1.1374651 0.8636471
-0.3439087 -1.1350535 0.86181605
-0.34659672 -1.1318381 0.8593747
-0.34926391 -1.1286227 0.85693324
-0.35216168 -1.126211 0.85510218
-0.35529777 -1.1246033 0.85388148
-0.35842353 -1.1229956 0.85266078
-0.36179799 -1.1221917 0.85205042
-0.36516729 -1.121388 0.85144013
-0.36853138 -1.120584 0.85082972
-0.37215722 -1.120584 0.85082972
-0.37551346 -1.1197801 0.85021937
-0.37913668 -1.1197801 0.85021937
-0.38248521 -1.1189764 0.84960902
-0.38527369 -1.1165648 0.84777796
-0.38832659 -1.1149571 0.84655732
-0.39108652 -1.1125454 0.8447262
-0.39383081 -1.1101338 0.84289515
-0.39627171 -1.1069183 0.8404538
-0.39898223 -1.1045069 0.83862275
-0.40138412 -1.1012914 0.83618134
-0.40406078 -1.0988798 0.83435029
-0.40672186 -1.0964682 0.83251923
-0.40966812 -1.0948604 0.83129853
-0.41260391 -1.0932527 0.83007777
-0.4155294 -1.091645 0.82885706
-0.41875303 -1.0908412 0.82824677
-0.42197141 -1.0900373 0.82763642
-0.42518464 -1.0892334 0.82702601
-0.42839268 -1.0884296 0.82641566
-0.43191445 -1.0884296 0.82641566
-0.43543628 -1.0884296 0.82641566
-0.43863386 -1.0876256 0.82580531
-0.44215307 -1.0876256 0.82580531
-0.44534293 -1.0868218 0.82519501
-0.44852749 -1.086018 0.8245846
-0.4513723 -1.0844102 0.82336396
-0.45454386 -1.0836064 0.82275355
-0.45737052 -1.0819986 0.82153291
-0.46018669 -1.0803909 0.82031226
-0.46299243 -1.0787832 0.81909144
-0.46544027 -1.0763717 0.81726044
-0.46787244 -1.0739601 0.81542939
-0.47099459 -1.0731561 0.81481898
-0.47340077 -1.0707445 0.81298792
-0.47543335 -1.0675292 0.81054658
0.51685882 -1.595289 1.204854
0.51067501 -1.592066 1.20242
0.50502372 -1.5904547 1.201203
0.49963599 -1.589649 1.2005944
0.49450415 -1.589649 1.2005944
0.48937231 -1.589649 1.2005944
0.48424047 -1.589649 1.2005944
0.47935146 -1.5904547 1.201203
0.47469747 -1.592066 1.20242
0.46979547 -1.5928719 1.2030284
0.46488822 -1.5936775 1.2036369
0.45997584 -1.5944833 1.2042454
0.45482835 -1.5944833 1.2042454
0.44968089 -1.5944833 1.2042454
0.44430885 -1.5936775 1.2036369
0.43916398 -1.5936775 1.2036369
0.43358028 -1.592066 1.20242
0.42822382 -1.5912604 1.2018116
0.42287254 -1.5904547 1.201203
0.41752645 -1.589649 1.2005944
0.41239461 -1.589649 1.2005944
0.40726277 -1.589649 1.2005944
0.40233475 -1.5904547 1.201203
0.39740154 -1.5912604 1.2018116
0.39206585 -1.5904547 1.201203
0.38693142 -1.5904547 1.201203
0.38199037 -1.5912604 1.2018116
0.37685332 -1.5912604 1.2018116
0.37171629 -1.5912604 1.2018116
0.36657923 -1.5912604 1.2018116
0.36144218 -1.5912604 1.2018116
0.35612473 -1.5904547 1.201203
0.3511681 -1.5912604 1.2018116
0.34603104 -1.5912604 1.2018116
0.34089401 -1.5912604 1.2018116
0.33575696 -1.5912604 1.2018116
0.33078727 -1.592066 1.20242
0.32548285 -1.5912604 1.2018116
0.32034579 -1.5912604 1.2018116
0.31488955 -1.589649 1.2005944
0.30960071 -1.5888433 1.199986
0.30416265 -1.587232 1.198769
0.29858324 -1.5848149 1.1969434
0.29301941 -1.5823978 1.1951178
0.28747118 -1.5799806 1.1932921
0.28208259 -1.5783691 1.1920753
0.27684572 -1.5775634 1.1914667
0.2716141 -1.5767578 1.1908582
0.2665239 -1.5767578 1.1908582
0.26143366 -1.5767578 1.1908582
0.25647441 -1.5775634 1.1914667
0.25150999 -1.5783691 1.1920753
0.2466661 -1.5799806 1.1932921
0.24181184 -1.5815921 1.1945093
0.2368266 -1.5823978 1.1951178
0.23195413 -1.5840092 1.1963348
0.22684048 -1.5840092 1.1963348
0.22195241 -1.5856205 1.1975518
0.21694376 -1.5864263 1.1981604
0.21192989 -1.587232 1.198769
0.20712076 -1.589649 1.2005944
0.20219369 -1.5912604 1.2018116
0.19735596 -1.5936775 1.2036369
0.19250262 -1.5960946 1.2054625
0.18763369 -1.5985117 1.207288
0.18284112 -1.6017346 1.209722
0.17784901 -1.6033459 1.2109392
0.17284648 -1.6049573 1.2121561
0.16774939 -1.6057631 1.2127646
0.16256553 -1.6057631 1.2127646
0.15730268 -1.6049573 1.2121561
0.15204506 -1.6041517 1.2115476
0.14671886 -1.6025401 1.2103306
0.14140306 -1.6009288 1.2091136
0.13609768 -1.5993174 1.2078966
0.13080269 -1.597706 1.2066795
0.12558149 -1.5969003 1.206071
0.12042623 -1.5969003 1.206071
0.11532912 -1.597706 1.2066795
0.11022683 -1.5985117 1.207288
0.10527819 -1.6017346 1.209722
0.10020804 -1.6033459 1.2109392
0.095079742 -1.6041517 1.2115476
0.031746443 -1.0506346 0.79349977
0.028224224 -1.0458006 0.78984874
0.024809789 -1.0441891 0.78863168
0.021372678 -1.0409663 0.78619766
0.017956372 -1.0377436 0.78376365
0.014572216 -1.0353265 0.78193808
0.011194926 -1.0321035 0.779504
0.0078384448 -1.0288808 0.77706999
0.0045063091 -1.0264636 0.77524441
0.0011888434 -1.0232409 0.77281046
-0.0021111439 -1.0216295 0.77159333
-0.005400727 -1.0200181 0.77037632
-0.0086867735 -1.0192124 0.76976782
-0.011977085 -1.0192124 0.76976782
-0.015255328 -1.0184066 0.76915932
-0.018543039 -1.0184066 0.76915932
-0.021813478 -1.017601 0.76855081
-0.025098588 -1.017601 0.76855081
-0.028338753 -1.0159895 0.76733375
-0.031568512 -1.0143782 0.76611674
-0.034815542 -1.0135725 0.76550823
-0.038027093 -1.0119611 0.76429123
-0.041228242 -1.0103498 0.76307422
-0.044418987 -1.0087383 0.76185715
-0.047561247 -1.0063212 0.76003164
-0.050687898 -1.003904 0.75820607
-0.053798947 -1.0014869 0.75638056
-0.056940272 -0.99987555 0.75516355
-0.060022708 -0.99745846 0.75333798
-0.063191712 -0.99665278 0.75272948
-0.066033386 -0.99101275 0.74846989
-0.069176383 -0.9902072 0.74786139
-0.072255284 -0.98859578 0.74664444
-0.075385265 -0.98779005 0.74603587
-0.078510039 -0.98698431 0.74542731
-0.081629634 -0.9861787 0.74481887
-0.084813297 -0.9861787 0.74481887
