# .PCD v0.7 - Point Cloud Data file format
VERSION 0.7
FIELDS x y z
SIZE 4 4 4
TYPE F F F
COUNT 1 1 1
WIDTH 1473
HEIGHT 1
VIEWPOINT 0 0 0 1 0 0 0
POINTS 1473
DATA ascii
0.24002843 -0.29313454 1.6010001
0.24419267 -0.29313454 1.6010001
0.24851207 -0.29331765 1.6020001
0.25267893 -0.29331765 1.6020001
0.25684577 -0.29331765 1.6020001
0.26101264 -0.29331765 1.6020001
0.26517951 -0.29331765 1.6020001
0.2695145 -0.29350072 1.603
0.27368397 -0.29350072 1.603
0.27785343 -0.29350072 1.603
0.28202289 -0.29350072 1.603
0.2863709 -0.29368383 1.6040001
0.29072407 -0.29386693 1.605
0.29508248 -0.29405001 1.6060001
0.29925975 -0.29405001 1.6060001
0.30362597 -0.29423311 1.6070001
0.30780584 -0.29423311 1.6070001
0.31179157 -0.29405001 1.6060001
0.31596881 -0.29405001 1.6060001
0.31974739 -0.29368383 1.6040001
0.32391948 -0.29368383 1.6040001
0.32625061 -0.29203597 1.595
0.32998496 -0.29166979 1.5930001
0.33349919 -0.2911205 1.59
0.33721012 -0.29075432 1.5880001
0.34091067 -0.29038814 1.5860001
0.34481835 -0.29020503 1.585
0.348941 -0.29020503 1.585
0.35306367 -0.29020503 1.585
0.35718629 -0.29020503 1.585
0.36153692 -0.29038814 1.5860001
0.36612326 -0.29075432 1.5880001
0.37048686 -0.29093742 1.5890001
0.3753272 -0.29148671 1.5920001
0.37994477 -0.29185289 1.5940001
0.3848137 -0.29240218 1.5970001
0.38969824 -0.29295143 1.6
0.39484456 -0.29368383 1.6040001
0.40200177 -0.29588097 1.6160001
0.40695915 -0.29643026 1.6190001
0.41193211 -0.29697955 1.6220001
0.41717729 -0.29771191 1.626
0.42140654 -0.29771191 1.626
0.42668292 -0.2984443 1.6300001
0.43171576 -0.29899359 1.6330001
0.43649715 -0.29935977 1.6350001
0.44128898 -0.29972595 1.6370001
0.4460912 -0.30009213 1.6390001
0.45035434 -0.30009213 1.6390001
0.45434007 -0.29990906 1.6380001
0.45860055 -0.29990906 1.6380001
0.46257848 -0.29972595 1.6370001
0.46683636 -0.29972595 1.6370001
0.47080645 -0.29954284 1.636
0.4750618 -0.29954284 1.636
0.47873113 -0.29917666 1.6340001
0.48268563 -0.29899359 1.6330001
0.48663497 -0.29881048 1.6320001
0.49057904 -0.29862738 1.631
0.49451795 -0.2984443 1.6300001
0.49845168 -0.2982612 1.6290001
0.50268877 -0.2982612 1.6290001
0.50692582 -0.2982612 1.6290001
0.51084912 -0.29807809 1.628
0.51508361 -0.29807809 1.628
0.5193181 -0.29807809 1.628
0.5235526 -0.29807809 1.628
0.52778709 -0.29807809 1.628
0.53202158 -0.29807809 1.628
0.5359267 -0.29789501 1.6270001
0.53982657 -0.29771191 1.626
0.54372126 -0.29752883 1.6250001
0.5476107 -0.29734573 1.6240001
0.5508154 -0.29679644 1.6210001
0.55400449 -0.29624715 1.618
0.55683297 -0.29551479 1.6140001
0.55964065 -0.2947824 1.6100001
0.56207728 -0.29386693 1.605
0.56413513 -0.29276836 1.5990001
0.56616175 -0.29166979 1.5930001
0.56708312 -0.29002196 1.5840001
0.56903952 -0.28892338 1.5780001
0.57641292 -0.29057124 1.5870001
0.57907748 -0.28983885 1.5830001
0.58208966 -0.28928956 1.58
0.58471531 -0.28855717 1.5760001
0.37785587 -0.17540468 0.95800006
0.38034764 -0.17540468 0.95800006
0.38243979 -0.17522158 0.95700002
0.38452679 -0.17503849 0.95600003
0.38620374 -0.17467231 0.95400006
0.38787025 -0.17430611 0.95200002
0.38952637 -0.17393993 0.95000005
0.3907595 -0.17339064 0.94700003
0.39239222 -0.17302446 0.94500005
0.39359668 -0.17247516 0.94200003
0.39520603 -0.17210898 0.94000006
0.3968049 -0.17174278 0.93800002
0.39796779 -0.17119351 0.93500006
0.39954329 -0.17082731 0.93300003
0.40110838 -0.17046113 0.93100005
0.40309653 -0.17027804 0.93000007
0.40507942 -0.17009494 0.92900002
0.4074958 -0.17009494 0.92900002
0.40991214 -0.17009494 0.92900002
0.41232854 -0.17009494 0.92900002
0.41474488 -0.17009494 0.92900002
0.41761029 -0.17027804 0.93000007
0.42048094 -0.17046113 0.93100005
0.42335671 -0.17064422 0.93200004
0.42578089 -0.17064422 0.93200004
0.42866451 -0.17082731 0.93300003
0.4315533 -0.1710104 0.93400002
0.43444735 -0.17119351 0.93500006
0.43734658 -0.1713766 0.93600005
0.44025099 -0.17155969 0.93700004
0.44268814 -0.17155969 0.93700004
0.44560036 -0.17174278 0.93800002
0.44851783 -0.17192589 0.93900007
0.45096019 -0.17192589 0.93900007
0.45388541 -0.17210898 0.94000006
0.45633039 -0.17210898 0.94000006
0.45926341 -0.17229207 0.94100004
0.46171099 -0.17229207 0.94100004
0.46415856 -0.17229207 0.94100004
0.46660614 -0.17229207 0.94100004
0.46905372 -0.17229207 0.94100004
0.47049919 -0.17192589 0.93900007
0.47143054 -0.1713766 0.93600005
-1.2890429 -0.43986297 2.437
-1.2821779 -0.43968248 2.4360001
-1.2747942 -0.43932149 2.434
-1.2679422 -0.43914101 2.4330001
-1.2600583 -0.43859953 2.4300001
-1.2547697 -0.43896052 2.4320002
-1.2510107 -0.43986297 2.437
-1.2431396 -0.43932149 2.434
-1.2286785 -0.43643361 2.4180002
-1.2198615 -0.43553114 2.4130001
-1.2125793 -0.43517011 2.411
-1.2058079 -0.43498966 2.4100001
-1.1990417 -0.43480918 2.4090002
-1.1942612 -0.43535066 2.4120002
-1.1899576 -0.43607262 2.4160001
-1.1836735 -0.43607262 2.4160001
-1.1725161 -0.43426767 2.4060001
-1.1672275 -0.4346287 2.4080002
-1.1595179 -0.43408719 2.4050002
-1.1532623 -0.43408719 2.4050002
-1.1470069 -0.43408719 2.4050002
-1.1407514 -0.43408719 2.4050002
-1.1344959 -0.43408719 2.4050002
-1.1282403 -0.43408719 2.4050002
-1.1219848 -0.43408719 2.4050002
-1.1161932 -0.43426767 2.4060001
-1.1103964 -0.43444815 2.4070001
-1.1045946 -0.4346287 2.4080002
-1.1033485 -0.4366141 2.4190001
-1.0961496 -0.4362531 2.4170001
-1.08851 -0.43571162 2.414
-1.0817828 -0.43553114 2.4130001
-1.0821923 -0.43823856 2.4280002
-1.0780926 -0.43914101 2.4330001
-1.0735261 -0.43986297 2.437
-1.0693771 -0.44076544 2.4420002
-1.0652019 -0.44166791 2.447
-1.060568 -0.44238991 2.4510002
-1.0559132 -0.44311187 2.4550002
-1.0520928 -0.44419485 2.4610002
-1.0473912 -0.44491681 2.4650002
-1.0418242 -0.44527778 2.467
-1.0370864 -0.44599977 2.4710002
-1.0319105 -0.44654125 2.4740002
-1.02589 -0.44672173 2.4750001
-1.0202763 -0.44708276 2.4770002
-1.0142428 -0.44726324 2.4780002
-1.0086107 -0.44762418 2.48
-0.99933153 -0.44636074 2.473
-0.99450523 -0.44708276 2.4770002
-0.989259 -0.44762418 2.48
-0.98399734 -0.44816568 2.483
-0.97832644 -0.44852668 2.4850001
-0.97342712 -0.44924864 2.4890001
-0.96773022 -0.44960964 2.4910002
-0.96240872 -0.45015115 2.4940002
-0.95553833 -0.4499706 2.493
-0.94981539 -0.4503316 2.4950001
-0.94332582 -0.4503316 2.4950001
-0.93608516 -0.4499706 2.493
-0.92661774 -0.44852668 2.4850001
-0.92015421 -0.44852668 2.4850001
-0.91369057 -0.44852668 2.4850001
-0.91197312 -0.45087311 2.4980001
-0.90076345 -0.44852668 2.4850001
-0.89825851 -0.45051208 2.4960001
-0.89105183 -0.45015115 2.4940002
-0.88385546 -0.44979012 2.4920001
-0.8773737 -0.44979012 2.4920001
-0.86984342 -0.44924864 2.4890001
-0.86232883 -0.44870716 2.4860001
-0.85482985 -0.44816568 2.483
-0.84734643 -0.44762418 2.48
-0.84089589 -0.44762418 2.48
-0.83410889 -0.44744369 2.4790001
-0.81731099 -0.44184843 2.4480002
-0.81094366 -0.44184843 2.4480002
-0.80424762 -0.44166791 2.447
-0.80081743 -0.44329235 2.4560001
-0.79378241 -0.44293138 2.4540002
-0.78354913 -0.44076544 2.4420002
-0.77528775 -0.43968248 2.4360001
-0.76800466 -0.43914101 2.4330001
-0.76073718 -0.43859953 2.4300001
-0.75286436 -0.43769708 2.4250002
-0.74501753 -0.43679458 2.4200001
-0.73780727 -0.4362531 2.4170001
-0.7303099 -0.43553114 2.4130001
-0.72013289 -0.43318471 2.4000001
-0.71270061 -0.43246275 2.3960001
-0.69526404 -0.42560396 2.358
-0.68854636 -0.42524302 2.3560002
-0.67778391 -0.42235512 2.3400002
-0.67141038 -0.42217463 2.3390002
-0.65394855 -0.41495484 2.299
-0.64712322 -0.41441336 2.296
-0.64003432 -0.4136914 2.2920001
-0.63324273 -0.41314992 2.289
-0.62646687 -0.41260841 2.286
-0.42340657 -0.29276067 1.6220001
-0.41944611 -0.29294115 1.623
-0.41496885 -0.29276067 1.6220001
-0.41100314 -0.29294115 1.623
-0.40653107 -0.29276067 1.6220001
-0.40231216 -0.29276067 1.6220001
-0.40152934 -0.29528758 1.636
-0.39800254 -0.29582906 1.6390001
-0.39421991 -0.29619005 1.641
-0.3904269 -0.29655105 1.6430001
-0.38615337 -0.29655105 1.6430001
-0.38211229 -0.29673153 1.6440001
-0.37760639 -0.29655105 1.6430001
-0.3728784 -0.29619005 1.641
-0.36816087 -0.29582906 1.6390001
-0.36323169 -0.29528758 1.636
-0.35809869 -0.29456562 1.6320001
-0.35298651 -0.29384363 1.628
-0.34789515 -0.29312167 1.6240001
-0.33753404 -0.28788733 1.595
-0.33296737 -0.28752634 1.5930001
-0.32655331 -0.28554091 1.582
-0.32162321 -0.28481895 1.5780001
-0.31711635 -0.28445798 1.5760001
-0.31003791 -0.28175056 1.5610001
-0.30538964 -0.28120908 1.5580001
-0.30056354 -0.28048709 1.554
-0.29613993 -0.28012612 1.552
-0.29229134 -0.28030661 1.5530001
-0.28843752 -0.28048709 1.554
-0.28476155 -0.28084809 1.5560001
-0.28107515 -0.28120908 1.5580001
-0.27755615 -0.28175056 1.5610001
-0.27437195 -0.28265303 1.5660001
-0.27081656 -0.28319451 1.5690001
-0.26758555 -0.28409699 1.5740001
-0.26432851 -0.28499946 1.5790001
-0.26104549 -0.2859019 1.5840001
-0.25773644 -0.28680438 1.5890001
-0.25440142 -0.28770685 1.5940001
-0.25104034 -0.28860933 1.5990001
-0.24765325 -0.2895118 1.6040001
-0.2439366 -0.29005328 1.6070001
-0.24035349 -0.29077524 1.6110001
-0.23836212 -0.29348263 1.626
-0.23413286 -0.29348263 1.626
-0.22976218 -0.29330215 1.6250001
-0.22525789 -0.29294115 1.623
-0.22008309 -0.29167771 1.6160001
-0.21748286 -0.29384363 1.628
-0.21337937 -0.29402411 1.6290001
-0.20927069 -0.29420462 1.6300001
-0.20503099 -0.29420462 1.6300001
-0.20066811 -0.29402411 1.6290001
-0.19643103 -0.29402411 1.6290001
-0.19207595 -0.29384363 1.628
-0.18761069 -0.29348263 1.626
-0.18326864 -0.29330215 1.6250001
-0.17871141 -0.29276067 1.6220001
-0.17416978 -0.29221919 1.6190001
-0.16964377 -0.29167771 1.6160001
-0.16513337 -0.29113623 1.613
-0.16053881 -0.29041424 1.6090001
-0.1560622 -0.28987277 1.6060001
-0.1502772 -0.28680438 1.5890001
-0.1459602 -0.28644341 1.5870001
-0.1416536 -0.28608239 1.585
-0.13727064 -0.28554091 1.582
-0.13290331 -0.28499946 1.5790001
-0.12838843 -0.28409699 1.5740001
-0.12476819 -0.28517994 1.58
-0.12050582 -0.28481895 1.5780001
-0.11625386 -0.28445798 1.5760001
-0.11115832 -0.28193104 1.562
-0.10682125 -0.28120908 1.5580001
-0.10250498 -0.28048709 1.554
-0.098209538 -0.27976513 1.5500001
-0.094056413 -0.27940413 1.5480001
-0.089855522 -0.27886266 1.5450001
-0.085725807 -0.27850169 1.5430001
-0.081659444 -0.27832118 1.5420001
-0.077598296 -0.27814069 1.5410001
-0.0735901 -0.27814069 1.5410001
-0.069627047 -0.27832118 1.5420001
-0.065658808 -0.27850169 1.5430001
-0.061765261 -0.27904317 1.5460001
-0.057818759 -0.27940413 1.5480001
-0.054209344 -0.28157008 1.5600001
-0.050216019 -0.28193104 1.562
-0.04630094 -0.28283352 1.567
-0.042279013 -0.28319451 1.5690001
-0.038271017 -0.28373599 1.572
-0.034269165 -0.28445798 1.5760001
-0.030227361 -0.28499946 1.5790001
-0.026153408 -0.28536043 1.5810001
-0.022096934 -0.28608239 1.585
-0.017996971 -0.28644341 1.5870001
-0.013904081 -0.28716537 1.5910001
-0.0097658308 -0.28716537 1.5910001
-0.0056346552 -0.28752634 1.5930001
-0.001492139 -0.28770685 1.5940001
0.0026555792 -0.28788733 1.595
0.0068042334 -0.28788733 1.595
0.010952887 -0.28788733 1.595
0.015101541 -0.28788733 1.595
0.019238127 -0.28770685 1.5940001
0.023384182 -0.28770685 1.5940001
0.027512964 -0.28752634 1.5930001
0.031636544 -0.28734586 1.5920001
0.035799868 -0.28752634 1.5930001
0.040093765 -0.28860933 1.5990001
0.044280495 -0.28878981 1.6
0.048472434 -0.28897029 1.6010001
0.052669577 -0.2891508 1.6020001
0.056907389 -0.2895118 1.6040001
0.060660582 -0.28752634 1.5930001
0.064763352 -0.28734586 1.5920001
0.068860926 -0.28716537 1.5910001
0.072907411 -0.28680438 1.5890001
0.076943487 -0.28644341 1.5870001
0.081020251 -0.2862629 1.5860001
0.085038126 -0.2859019 1.5840001
0.089101881 -0.28572142 1.5830001
0.093160428 -0.28554091 1.582
0.09721379 -0.28536043 1.5810001
0.10126193 -0.28517994 1.58
0.10530489 -0.28499946 1.5790001
0.10934263 -0.28481895 1.5780001
0.11344706 -0.28481895 1.5780001
0.11829644 -0.2866239 1.5880001
0.12250399 -0.28680438 1.5890001
0.12663704 -0.28680438 1.5890001
0.13085237 -0.28698486 1.59
0.13524273 -0.28752634 1.5930001
0.13956118 -0.28788733 1.595
0.14389002 -0.28824833 1.5970001
0.14795117 -0.28806785 1.5960001
0.15219775 -0.28824833 1.5970001
0.1565474 -0.28860933 1.5990001
0.16080695 -0.28878981 1.6
0.16496862 -0.28878981 1.6
0.16913028 -0.28878981 1.6
0.17318363 -0.28860933 1.5990001
0.1773427 -0.28860933 1.5990001
0.18127474 -0.28824833 1.5970001
0.18531248 -0.28806785 1.5960001
0.18946373 -0.28806785 1.5960001
0.19361499 -0.28806785 1.5960001
0.19776624 -0.28806785 1.5960001
0.2019175 -0.28806785 1.5960001
0.20619789 -0.28824833 1.5970001
0.21035172 -0.28824833 1.5970001
0.2145056 -0.28824833 1.5970001
0.21893328 -0.28860933 1.5990001
0.22323184 -0.28878981 1.6
0.22739351 -0.28878981 1.6
0.23169991 -0.28897029 1.6010001
0.23601149 -0.2891508 1.6020001
0.24017835 -0.2891508 1.6020001
0.24449772 -0.28933129 1.603
0.24882232 -0.2895118 1.6040001
0.25299439 -0.2895118 1.6040001
0.25716645 -0.2895118 1.6040001
0.2613385 -0.2895118 1.6040001
0.26551059 -0.2895118 1.6040001
0.26985076 -0.28969228 1.605
0.27402541 -0.28969228 1.605
0.27820009 -0.28969228 1.605
0.28255069 -0.28987277 1.6060001
0.28672796 -0.28987277 1.6060001
0.29108635 -0.29005328 1.6070001
0.29544997 -0.29023376 1.608
0.29963243 -0.29023376 1.608
0.30400383 -0.29041424 1.6090001
0.30818892 -0.29041424 1.6090001
0.31217983 -0.29023376 1.608
0.31616557 -0.29005328 1.6070001
0.32014608 -0.28987277 1.6060001
0.32391948 -0.2895118 1.6040001
0.32625061 -0.28788733 1.595
0.32977784 -0.28734586 1.5920001
0.33349919 -0.28698486 1.59
0.33721012 -0.2866239 1.5880001
0.34112564 -0.28644341 1.5870001
0.34503591 -0.2862629 1.5860001
0.34916118 -0.2862629 1.5860001
0.35328642 -0.2862629 1.5860001
0.35741165 -0.2862629 1.5860001
0.36199281 -0.2866239 1.5880001
0.36635384 -0.28680438 1.5890001
0.37095317 -0.28716537 1.5910001
0.37556294 -0.28752634 1.5930001
0.38042149 -0.28806785 1.5960001
0.3852956 -0.28860933 1.5990001
0.3904289 -0.28933129 1.603
0.39558306 -0.29005328 1.6070001
0.40249929 -0.29203868 1.618
0.40771323 -0.29276067 1.6220001
0.41269401 -0.29330215 1.6250001
0.41794699 -0.29402411 1.6290001
0.42244324 -0.29420462 1.6300001
0.42746821 -0.2947461 1.6330001
0.43250883 -0.29528758 1.636
0.43729809 -0.29564857 1.6380001
0.4418281 -0.29582906 1.6390001
0.44663554 -0.29619005 1.641
0.45090386 -0.29619005 1.641
0.45489481 -0.29600957 1.6400001
0.45916048 -0.29600957 1.6400001
0.46314365 -0.29582906 1.6390001
0.46740672 -0.29582906 1.6390001
0.47138205 -0.29564857 1.6380001
0.4753522 -0.29546806 1.6370001
0.47931707 -0.29528758 1.636
0.48327678 -0.2951071 1.6350001
0.48723131 -0.29492658 1.6340001
0.49118063 -0.2947461 1.6330001
0.49512473 -0.29456562 1.6320001
0.49906364 -0.29438511 1.631
0.50330591 -0.29438511 1.631
0.50754821 -0.29438511 1.631
0.51179051 -0.29438511 1.631
0.51603281 -0.29438511 1.631
0.52027506 -0.29438511 1.631
0.52451742 -0.29438511 1.631
0.52875966 -0.29438511 1.631
0.53300196 -0.29438511 1.631
0.53691489 -0.29420462 1.6300001
0.54082257 -0.29402411 1.6290001
0.54439044 -0.29366314 1.6270001
0.54828513 -0.29348263 1.626
0.55149502 -0.29294115 1.623
0.55468935 -0.2923997 1.6200001
0.55752295 -0.29167771 1.6160001
0.56033587 -0.29095575 1.6120001
0.5627777 -0.29005328 1.6070001
0.56448787 -0.28878981 1.6
0.56651717 -0.28770685 1.5940001
0.56923115 -0.28698486 1.59
0.57156378 -0.28608239 1.585
0.57750249 -0.28698486 1.59
0.58017486 -0.2862629 1.5860001
0.57840556 -0.28337499 1.5700001
0.37785587 -0.1729129 0.95800006
0.37995061 -0.1727324 0.95700002
0.38243979 -0.1727324 0.95700002
0.38452679 -0.17255192 0.95600003
0.38620374 -0.17219092 0.95400006
0.38787025 -0.17182994 0.95200002
0.38952637 -0.17146894 0.95000005
0.39117214 -0.17110796 0.94800007
0.39280742 -0.17074697 0.94600004
0.39401451 -0.17020549 0.94300002
0.39562646 -0.16984451 0.94100004
0.39722797 -0.16948353 0.93900007
0.39839342 -0.16894203 0.93600005
0.39997151 -0.16858105 0.93400002
0.40197006 -0.16840056 0.93300003
0.40396339 -0.16822006 0.93200004
0.40595153 -0.16803958 0.93100005
0.40837309 -0.16803958 0.93100005
0.41079465 -0.16803958 0.93100005
0.41321623 -0.16803958 0.93100005
0.41563779 -0.16803958 0.93100005
0.41850838 -0.16822006 0.93200004
0.42138422 -0.16840056 0.93300003
0.42426521 -0.16858105 0.93400002
0.42715144 -0.16876155 0.93500006
0.43004286 -0.16894203 0.93600005
0.43293947 -0.16912253 0.93700004
0.43537661 -0.16912253 0.93700004
0.43828106 -0.16930303 0.93800002
0.44119069 -0.16948353 0.93900007
0.44363305 -0.16948353 0.93900007
0.44655049 -0.16966401 0.94000006
0.44947311 -0.16984451 0.94100004
0.45192069 -0.16984451 0.94100004
0.45485109 -0.17002501 0.94200003
0.45778674 -0.17020549 0.94300002
0.46023953 -0.17020549 0.94300002
0.46269229 -0.17020549 0.94300002
0.46514508 -0.17020549 0.94300002
0.46759784 -0.17020549 0.94300002
0.46955216 -0.17002501 0.94200003
0.47100025 -0.16966401 0.94000006
0.4719342 -0.16912253 0.93700004
-1.2969773 -0.43619263 2.4520001
-1.283757 -0.43388003 2.4390001
-1.2768892 -0.43370214 2.4380002
-1.2695056 -0.43334633 2.4360001
-1.2616138 -0.43281266 2.4330001
-1.2552856 -0.43281266 2.4330001
-1.2510107 -0.43352422 2.437
-1.2375215 -0.43103373 2.4230001
-1.2291867 -0.43032217 2.4190001
-1.220367 -0.42943269 2.414
-1.2125793 -0.42889902 2.411
-1.2058079 -0.42872113 2.4100001
-1.1995394 -0.42872113 2.4100001
-1.1927758 -0.42854327 2.4090002
-1.1870024 -0.42872113 2.4100001
-1.1812239 -0.42889902 2.411
-1.1715413 -0.42765376 2.404
-1.1657733 -0.42783168 2.4050002
-1.1585536 -0.4274759 2.4030001
-1.1523032 -0.4274759 2.4030001
-1.146053 -0.4274759 2.4030001
-1.1398027 -0.4274759 2.4030001
-1.1335523 -0.4274759 2.4030001
-1.1273021 -0.4274759 2.4030001
-1.1215183 -0.42765376 2.404
-1.1157293 -0.42783168 2.4050002
-1.1099352 -0.42800957 2.4060001
-1.1045946 -0.42836538 2.4080002
-1.1038046 -0.43050006 2.4200001
-1.0966032 -0.43014431 2.4180002
-1.0880592 -0.42925483 2.4130001
-1.0813346 -0.42907694 2.4120002
-1.0821923 -0.43192321 2.4280002
-1.0780926 -0.43281266 2.4330001
-1.0744072 -0.43388003 2.4390001
-1.0702528 -0.43476948 2.444
-1.0660725 -0.43565896 2.4490001
-1.0618662 -0.43654844 2.4540002
-1.0567734 -0.43708208 2.457
-1.0542302 -0.43868312 2.4660001
-1.0495156 -0.43939468 2.47
-1.044358 -0.43992835 2.473
-1.0396045 -0.44063997 2.4770002
-1.0344131 -0.44117361 2.48
-1.0283771 -0.44135153 2.4810002
-1.0227476 -0.44170728 2.483
-1.0166986 -0.4418852 2.4840002
-1.0106443 -0.44206309 2.4850001
-1.0045848 -0.44224095 2.4860001
-0.9985202 -0.4424189 2.4870002
-0.99205136 -0.4424189 2.4870002
-0.98280847 -0.44117361 2.48
-0.97990119 -0.44277465 2.4890001
-0.97225386 -0.44224095 2.4860001
-0.96656471 -0.44259676 2.4880002
-0.9616369 -0.44330832 2.4920001
-0.95438844 -0.44295251 2.49
-0.94867331 -0.44330832 2.4920001
-0.94219154 -0.44330832 2.4920001
-0.93570971 -0.44330832 2.4920001
-0.92848212 -0.44295251 2.49
-0.92496789 -0.44437569 2.4980001
-0.91883814 -0.44455358 2.4990001
-0.91270322 -0.44473144 2.5
-0.90620065 -0.44473144 2.5
-0.89933813 -0.44455358 2.4990001
-0.89212364 -0.4441978 2.4970002
-0.88527417 -0.44401988 2.4960001
-0.87878197 -0.44401988 2.4960001
-0.87124133 -0.44348621 2.493
-0.86371636 -0.44295251 2.49
-0.85620701 -0.4424189 2.4870002
-0.84871316 -0.4418852 2.4840002
-0.8419131 -0.44170728 2.483
-0.83511829 -0.44152939 2.4820001
-0.82866246 -0.44152939 2.4820001
-0.82187545 -0.44135153 2.4810002
-0.81476498 -0.44099572 2.4790001
-0.8021217 -0.43761575 2.46
-0.79539973 -0.43743786 2.4590001
-0.79445845 -0.44046205 2.4760001
-0.7877 -0.44028416 2.4750001
-0.78063112 -0.43992835 2.473
-0.77325958 -0.43939468 2.47
-0.76497227 -0.43832737 2.4640002
-0.75763977 -0.43779367 2.4610002
-0.73811257 -0.43014431 2.4180002
-0.73121786 -0.4297885 2.4160001
-0.7279343 -0.43156743 2.4260001
-0.71270061 -0.42623064 2.3960001
-0.70705813 -0.42658642 2.398
-0.70111316 -0.42676434 2.3990002
-0.67807353 -0.41644654 2.3410001
-0.67141038 -0.41609079 2.3390002
-0.66418874 -0.4153792 2.335
-0.65726978 -0.4148455 2.332
-0.65036643 -0.41431183 2.329
-0.64375532 -0.41395605 2.3270001
-0.63715464 -0.41360027 2.325
-0.42392865 -0.28889757 1.6240001
-0.41944611 -0.28871965 1.623
-0.41496885 -0.28854179 1.6220001
-0.41074991 -0.28854179 1.6220001
-0.40653107 -0.28854179 1.6220001
-0.40231216 -0.28854179 1.6220001
-0.4010385 -0.29067647 1.6340001
-0.39484572 -0.28925335 1.626
-0.39349923 -0.29138806 1.6380001
-0.389714 -0.29174384 1.6400001
-0.38544828 -0.29174384 1.6400001
-0.38118261 -0.29174384 1.6400001
-0.37668705 -0.29156595 1.6390001
-0.37196949 -0.29121017 1.6370001
-0.36726236 -0.29085439 1.6350001
-0.36234358 -0.29032069 1.6320001
-0.35458791 -0.28747442 1.6160001
-0.34973419 -0.28694075 1.613
-0.34489605 -0.28640708 1.6100001
-0.33795732 -0.28409448 1.5970001
-0.33171329 -0.28231555 1.5870001
-0.32696617 -0.28178188 1.5840001
-0.31938121 -0.27875769 1.567
-0.31450054 -0.27804613 1.5630001
-0.30964065 -0.27733454 1.559
-0.30499762 -0.27680087 1.5560001
-0.30037016 -0.2762672 1.5530001
-0.29594913 -0.27591142 1.5510001
-0.29210311 -0.27608928 1.552
-0.28843752 -0.27644506 1.554
-0.28476155 -0.27680087 1.5560001
-0.28125554 -0.27733454 1.559
-0.27773395 -0.27786821 1.562
-0.27454713 -0.27875769 1.567
-0.27116176 -0.27946925 1.5710001
-0.26792553 -0.28035873 1.5760001
-0.26466331 -0.28124818 1.5810001
-0.2613751 -0.28213766 1.5860001
-0.25822306 -0.283205 1.5920001
-0.25488019 -0.28409448 1.5970001
-0.25151134 -0.28498393 1.6020001
-0.24811645 -0.28587338 1.6070001
-0.24454378 -0.28658494 1.6110001
-0.24095029 -0.28729653 1.6150001
-0.23733597 -0.28800809 1.6190001
-0.23470883 -0.28996491 1.6300001
-0.23032774 -0.28978702 1.6290001
-0.22581306 -0.28943124 1.6270001
-0.22049166 -0.28800809 1.6190001
-0.21775006 -0.28996491 1.6300001
-0.21364135 -0.2901428 1.631
-0.20939906 -0.2901428 1.631
-0.20515676 -0.2901428 1.631
-0.2007913 -0.28996491 1.6300001
-0.19655161 -0.28996491 1.6300001
-0.19207595 -0.28960913 1.628
-0.18761069 -0.28925335 1.626
-0.18326864 -0.28907546 1.6250001
-0.17871141 -0.28854179 1.6220001
-0.17416978 -0.28800809 1.6190001
-0.16964377 -0.28747442 1.6160001
-0.16523574 -0.28711864 1.6140001
-0.16063859 -0.28640708 1.6100001
-0.15615937 -0.28587338 1.6070001
-0.15160121 -0.28516182 1.603
-0.14706387 -0.28445026 1.5990001
-0.14156424 -0.28178188 1.5840001
-0.13727064 -0.28142607 1.582
-0.13290331 -0.2808924 1.5790001
-0.12912254 -0.28160396 1.5830001
-0.12484716 -0.28124818 1.5810001
-0.12058219 -0.2808924 1.5790001
-0.11625386 -0.28035873 1.5760001
-0.11201229 -0.28000295 1.5740001
-0.10695837 -0.27751243 1.5600001
-0.10263692 -0.27680087 1.5560001
-0.098336257 -0.27608928 1.552
-0.094117165 -0.27555561 1.549
-0.089913681 -0.27502194 1.5460001
-0.085781366 -0.27466616 1.544
-0.081659444 -0.27431038 1.5420001
-0.077547938 -0.2739546 1.5400001
-0.073542342 -0.2739546 1.5400001
-0.069536738 -0.2739546 1.5400001
-0.0655737 -0.27413249 1.5410001
-0.061645404 -0.27448827 1.5430001
-0.057706706 -0.27484405 1.5450001
-0.05379235 -0.27537772 1.5480001
-0.05008743 -0.27715665 1.5580001
-0.046212301 -0.27822402 1.5640001
-0.042225115 -0.27875769 1.567
-0.038222328 -0.27929136 1.5700001
-0.034203932 -0.27982503 1.5730001
-0.030189073 -0.28053659 1.577
-0.026136866 -0.28107029 1.58
-0.022082994 -0.28178188 1.5840001
-0.017996971 -0.28231555 1.5870001
-0.013886603 -0.28267133 1.5890001
-0.0097719692 -0.283205 1.5920001
-0.0056346552 -0.28338289 1.5930001
-0.0014930749 -0.28373867 1.595
0.0026589092 -0.28409448 1.5970001
0.0068127657 -0.28409448 1.5970001
0.010966622 -0.28409448 1.5970001
0.015120478 -0.28409448 1.5970001
0.019262265 -0.28391656 1.5960001
0.02341352 -0.28391656 1.5960001
0.027547505 -0.28373867 1.595
0.031676289 -0.28356078 1.5940001
0.036002129 -0.28498393 1.6020001
0.040168989 -0.28498393 1.6020001
0.044363525 -0.28516182 1.603
0.048563264 -0.28533971 1.6040001
0.052768204 -0.2855176 1.605
0.056978345 -0.28569549 1.6060001
0.060660582 -0.28338289 1.5930001
0.064722672 -0.28302711 1.5910001
0.068817638 -0.28284922 1.59
0.07286153 -0.28249344 1.5880001
0.076895006 -0.28213766 1.5860001
0.080969162 -0.28195974 1.585
0.085038126 -0.28178188 1.5840001
0.089101881 -0.28160396 1.5830001
0.093160428 -0.28142607 1.582
0.097275272 -0.28142607 1.582
0.10132603 -0.28124818 1.5810001
0.10543827 -0.28124818 1.5810001
0.10948122 -0.28107029 1.58
0.11423789 -0.28267133 1.5890001
0.11829644 -0.28249344 1.5880001
0.12250399 -0.28267133 1.5890001
0.12663704 -0.28267133 1.5890001
0.13101697 -0.283205 1.5920001
0.13524273 -0.28338289 1.5930001
0.13929868 -0.283205 1.5920001
0.14352962 -0.28338289 1.5930001
0.14785847 -0.28373867 1.595
0.15210244 -0.28391656 1.5960001
0.1562537 -0.28391656 1.5960001
0.16070646 -0.28445026 1.5990001
0.16486552 -0.28445026 1.5990001
0.16913028 -0.28462812 1.6
0.17318363 -0.28445026 1.5990001
0.1773427 -0.28445026 1.5990001
0.18127474 -0.28409448 1.5970001
0.18531248 -0.28391656 1.5960001
0.18946373 -0.28391656 1.5960001
0.19361499 -0.28391656 1.5960001
0.19776624 -0.28391656 1.5960001
0.2019175 -0.28391656 1.5960001
0.20619789 -0.28409448 1.5970001
0.21035172 -0.28409448 1.5970001
0.21477422 -0.28445026 1.5990001
0.21893328 -0.28445026 1.5990001
0.22337137 -0.28480604 1.6010001
0.22753564 -0.28480604 1.6010001
0.23198935 -0.28516182 1.603
0.23615879 -0.28516182 1.603
0.2404782 -0.28533971 1.6040001
0.24480276 -0.2855176 1.605
0.24897744 -0.2855176 1.605
0.25330985 -0.28569549 1.6060001
0.25748709 -0.28569549 1.6060001
0.26166436 -0.28569549 1.6060001
0.26584163 -0.28569549 1.6060001
0.27018702 -0.28587338 1.6070001
0.27453762 -0.28605127 1.608
0.27872011 -0.28605127 1.608
0.28290254 -0.28605127 1.608
0.28726357 -0.28622916 1.6090001
0.29162976 -0.28640708 1.6100001
0.29581746 -0.28640708 1.6100001
0.30000514 -0.28640708 1.6100001
0.3043817 -0.28658494 1.6110001
0.30838045 -0.28640708 1.6100001
0.312374 -0.28622916 1.6090001
0.31636229 -0.28605127 1.608
0.32014608 -0.28569549 1.6060001
0.32391948 -0.28533971 1.6040001
0.32625061 -0.28373867 1.595
0.32977784 -0.283205 1.5920001
0.33349919 -0.28284922 1.59
0.33742249 -0.28267133 1.5890001
0.34134057 -0.28249344 1.5880001
0.34525347 -0.28231555 1.5870001
0.34938133 -0.28231555 1.5870001
0.35373193 -0.28249344 1.5880001
0.35808772 -0.28267133 1.5890001
0.36244872 -0.28284922 1.59
0.36704552 -0.283205 1.5920001
0.37141949 -0.28338289 1.5930001
0.37627023 -0.28391656 1.5960001
0.38113657 -0.28445026 1.5990001
0.38601851 -0.28498393 1.6020001
0.39115959 -0.28569549 1.6060001
0.39632154 -0.28640708 1.6100001
0.40324557 -0.28836387 1.6210001
0.40846735 -0.28907546 1.6250001
0.41345587 -0.28960913 1.628
0.4187167 -0.29032069 1.6320001
0.42322075 -0.29049861 1.6330001
0.4282535 -0.29103225 1.636
0.43330196 -0.29156595 1.6390001
0.43809897 -0.29192173 1.641
0.44263685 -0.29209962 1.6420001
0.44717991 -0.29227754 1.6430001
0.45145345 -0.29227754 1.6430001
0.45544955 -0.29209962 1.6420001
0.45972043 -0.29209962 1.6420001
0.46370879 -0.29192173 1.641
0.46797708 -0.29192173 1.641
0.47195759 -0.29174384 1.6400001
0.47593293 -0.29156595 1.6390001
0.47990307 -0.29138806 1.6380001
0.48386794 -0.29121017 1.6370001
0.48782769 -0.29103225 1.636
0.49178219 -0.29085439 1.6350001
0.49573147 -0.29067647 1.6340001
0.49998161 -0.29067647 1.6340001
0.50423169 -0.29067647 1.6340001
0.50848174 -0.29067647 1.6340001
0.51241815 -0.29049861 1.6330001
0.51698196 -0.29067647 1.6340001
0.52091306 -0.29049861 1.6330001
0.52516061 -0.29049861 1.6330001
0.52973229 -0.29067647 1.6340001
0.53365558 -0.29049861 1.6330001
0.53790307 -0.29049861 1.6330001
0.54181856 -0.29032069 1.6320001
0.54539424 -0.28996491 1.6300001
0.54895949 -0.28960913 1.628
0.55489308 -0.29049861 1.6330001
0.55845571 -0.2901428 1.631
0.56166297 -0.28960913 1.628
0.56415945 -0.28871965 1.623
0.56662995 -0.2878302 1.618
0.56519353 -0.28498393 1.6020001
0.56758338 -0.28409448 1.5970001
0.56994718 -0.283205 1.5920001
0.5726456 -0.28249344 1.5880001
0.57568645 -0.28195974 1.585
0.57834584 -0.28124818 1.5810001
0.58098441 -0.28053659 1.577
0.37575588 -0.170599 0.95900005
0.37785587 -0.17042111 0.95800006
0.38034764 -0.17042111 0.95800006
0.38243979 -0.1702432 0.95700002
0.38452679 -0.17006531 0.95600003
0.38660854 -0.16988742 0.95500004
0.38827768 -0.16953164 0.95300007
0.38993639 -0.16917585 0.95100003
0.39158475 -0.16882007 0.94900006
0.39280742 -0.16828638 0.94600004
0.39443237 -0.1679306 0.94400007
0.39604688 -0.16757482 0.94200003
0.39765099 -0.16721904 0.94000006
0.39924467 -0.16686325 0.93800002
0.400828 -0.16650747 0.93600005
0.40283173 -0.16632958 0.93500006
0.40483025 -0.16615167 0.93400002
0.40725961 -0.16615167 0.93400002
0.40925035 -0.16597378 0.93300003
0.41167712 -0.16597378 0.93300003
0.4141039 -0.16597378 0.93300003
0.41697711 -0.16615167 0.93400002
0.41940644 -0.16615167 0.93400002
0.42228749 -0.16632958 0.93500006
0.4251737 -0.16650747 0.93600005
0.42806512 -0.16668536 0.93700004
0.43096173 -0.16686325 0.93800002
0.43386358 -0.16704115 0.93900007
0.43630594 -0.16704115 0.93900007
0.43921557 -0.16721904 0.94000006
0.44213039 -0.16739693 0.94100004
0.44457796 -0.16739693 0.94100004
0.44750056 -0.16757482 0.94200003
0.45042843 -0.16775271 0.94300002
0.45288119 -0.16775271 0.94300002
0.45581684 -0.1679306 0.94400007
0.45875767 -0.16810849 0.94500005
0.46121565 -0.16810849 0.94500005
0.46367362 -0.16810849 0.94500005
0.46613163 -0.16810849 0.94500005
0.4685896 -0.16810849 0.94500005
0.47005063 -0.16775271 0.94300002
0.47150129 -0.16739693 0.94100004
0.47243786 -0.16686325 0.93800002
-1.2980351 -0.43016547 2.4540002
-1.285336 -0.42806196 2.4420002
-1.2810792 -0.42876312 2.4460001
-1.271069 -0.42753607 2.4390001
-1.263688 -0.42718548 2.437
-1.2563175 -0.42683494 2.4350002
-1.2458773 -0.42543256 2.427
-1.2385432 -0.42508203 2.4250002
-1.2296947 -0.42420554 2.4200001
-1.2208726 -0.42332909 2.4150002
-1.2135853 -0.42297849 2.4130001
-1.2073089 -0.42297849 2.4130001
-1.2010326 -0.42297849 2.4130001
-1.1952513 -0.42315379 2.414
-1.1904501 -0.42367965 2.4170001
-1.1782843 -0.42157617 2.4050002
-1.1715413 -0.42140087 2.404
-1.1657733 -0.42157617 2.4050002
-1.1585536 -0.42122558 2.4030001
-1.1523032 -0.42122558 2.4030001
-1.146053 -0.42122558 2.4030001
-1.1398027 -0.42122558 2.4030001
-1.1335523 -0.42122558 2.4030001
-1.1273021 -0.42122558 2.4030001
-1.1215183 -0.42140087 2.404
-1.1161932 -0.42175147 2.4060001
-1.1103964 -0.42192674 2.4070001
-1.1050533 -0.42227733 2.4090002
-1.0996995 -0.4226279 2.411
-1.0984172 -0.42455614 2.4220002
-1.0871574 -0.4226279 2.411
-1.0867143 -0.4249067 2.424
-1.082638 -0.42578316 2.4290001
-1.0794219 -0.42701021 2.4360001
-1.0757288 -0.42806196 2.4420002
-1.0715666 -0.42893839 2.447
-1.0678138 -0.42999014 2.4530001
-1.063597 -0.43086663 2.4580002
-1.0572037 -0.43086663 2.4580002
-1.0563679 -0.43314543 2.4710002
-1.0516403 -0.43384659 2.4750001
-1.0468919 -0.43454775 2.4790001
-1.0417031 -0.43507361 2.4820001
-1.0364987 -0.43559951 2.4850001
-1.0304495 -0.43577477 2.4860001
-1.0243952 -0.4359501 2.4870002
-1.0183358 -0.43612537 2.4880002
-1.0118643 -0.43612537 2.4880002
-1.005797 -0.43630067 2.4890001
-0.99932313 -0.43630067 2.4890001
-0.99284911 -0.43630067 2.4890001
-0.98637515 -0.43630067 2.4890001
-0.98029482 -0.43647593 2.49
-0.97147173 -0.43542421 2.4840002
-0.96539927 -0.43559951 2.4850001
-0.9616369 -0.43682653 2.4920001
-0.95285529 -0.43577477 2.4860001
-0.94905394 -0.43700182 2.493
-0.94294775 -0.43717712 2.4940002
-0.93683618 -0.43735242 2.4950001
-0.93071944 -0.43752769 2.4960001
-0.92496789 -0.43787828 2.4980001
-0.91883814 -0.43805358 2.4990001
-0.91306835 -0.43840417 2.5010002
-0.90656316 -0.43840417 2.5010002
-0.89969802 -0.43822885 2.5
-0.89283818 -0.43805358 2.4990001
-0.88598353 -0.43787828 2.4980001
-0.8794862 -0.43787828 2.4980001
-0.87194031 -0.43735242 2.4950001
-0.86475694 -0.43700182 2.493
-0.85723978 -0.43647593 2.49
-0.84973818 -0.4359501 2.4870002
-0.84293032 -0.43577477 2.4860001
-0.8361277 -0.43559951 2.4850001
-0.82966411 -0.43559951 2.4850001
-0.8228693 -0.43542421 2.4840002
-0.81607962 -0.43524888 2.483
-0.81092554 -0.4359501 2.4870002
-0.80413324 -0.43577477 2.4860001
-0.79606283 -0.43489835 2.4810002
-0.78897303 -0.43454775 2.4790001
-0.78189379 -0.43419719 2.4770002
-0.77451187 -0.4336713 2.4740002
-0.76559311 -0.43226895 2.4660001
-0.75794756 -0.43156779 2.4620001
-0.75032282 -0.43086663 2.4580002
-0.74302149 -0.43034077 2.4550002
-0.72853446 -0.42560789 2.4280002
-0.72519374 -0.4273608 2.4380002
-0.70735306 -0.42052442 2.3990002
-0.70169765 -0.42087498 2.401
-0.69603193 -0.42122558 2.4030001
-0.68002188 -0.41526568 2.3690002
-0.67329115 -0.41491508 2.3670001
-0.66657078 -0.41456449 2.365
-0.65986091 -0.41421393 2.3630002
-0.65316129 -0.41386333 2.3610001
-0.42392865 -0.28467348 1.6240001
-0.41944611 -0.28449818 1.623
-0.41496885 -0.28432289 1.6220001
-0.41049668 -0.28414759 1.6210001
-0.4062804 -0.28414759 1.6210001
-0.40206411 -0.28414759 1.6210001
-0.39760244 -0.28397232 1.6200001
-0.39460289 -0.28484878 1.6250001
-0.39013597 -0.28467348 1.6240001
-0.38614956 -0.28484878 1.6250001
-0.38168782 -0.28467348 1.6240001
-0.38025287 -0.28677696 1.636
-0.37278 -0.28432289 1.6220001
-0.36833388 -0.28414759 1.6210001
-0.36366835 -0.28379703 1.6190001
-0.35923523 -0.28362173 1.618
-0.35436851 -0.28309587 1.6150001
-0.34930053 -0.28239468 1.6110001
-0.34468183 -0.28204411 1.6090001
-0.33816892 -0.28011587 1.598
-0.33213133 -0.27853829 1.5890001
-0.32717258 -0.2778371 1.585
-0.31938121 -0.27468184 1.567
-0.31450054 -0.27398068 1.5630001
-0.30964065 -0.27327952 1.559
-0.30480161 -0.27257836 1.5550001
-0.30037016 -0.27222776 1.5530001
-0.29594913 -0.2718772 1.5510001
-0.29210311 -0.27205247 1.552
-0.28843752 -0.27240306 1.554
-0.28476155 -0.27275366 1.5560001
-0.28125554 -0.27327952 1.559
-0.27791175 -0.27398068 1.5630001
-0.27472237 -0.27485713 1.5680001
-0.27150697 -0.27573359 1.5730001
-0.26826555 -0.27661005 1.5780001
-0.26499811 -0.2774865 1.5830001
-0.26170468 -0.27836296 1.5880001
-0.25854743 -0.27941474 1.5940001
-0.2551994 -0.2802912 1.5990001
-0.25182533 -0.28116766 1.6040001
-0.24842523 -0.28204411 1.6090001
-0.24499916 -0.28292057 1.6140001
-0.24139786 -0.28362173 1.618
-0.23762915 -0.28414759 1.6210001
-0.23514082 -0.2862511 1.6330001
-0.23075192 -0.2860758 1.6320001
-0.22636822 -0.2859005 1.631
-0.22198977 -0.28572524 1.6300001
-0.21788365 -0.2859005 1.631
-0.21364135 -0.2859005 1.631
-0.20939906 -0.2859005 1.631
-0.20515676 -0.2859005 1.631
-0.2007913 -0.28572524 1.6300001
-0.19643103 -0.28554994 1.6290001
-0.19195798 -0.28519934 1.6270001
-0.18749532 -0.28484878 1.6250001
-0.18315585 -0.28467348 1.6240001
-0.17860122 -0.28414759 1.6210001
-0.17406219 -0.28362173 1.618
-0.16964377 -0.28327113 1.6160001
-0.16523574 -0.28292057 1.6140001
-0.16073835 -0.28239468 1.6110001
-0.15625654 -0.28186879 1.608
-0.15179035 -0.28134292 1.605
-0.14724781 -0.28064176 1.6010001
-0.14183235 -0.27818769 1.5870001
-0.13761774 -0.27801239 1.5860001
-0.13290331 -0.27678537 1.5790001
-0.12920411 -0.27766183 1.5840001
-0.12492612 -0.27731121 1.582
-0.12065855 -0.27696064 1.58
-0.11640139 -0.27661005 1.5780001
-0.11201229 -0.27590889 1.5740001
-0.10778113 -0.27555829 1.572
-0.10349442 -0.27503243 1.5690001
-0.098462977 -0.27240306 1.554
-0.094238691 -0.2718772 1.5510001
-0.09003 -0.27135131 1.5480001
-0.085836925 -0.27082545 1.5450001
-0.081659444 -0.27029955 1.5420001
-0.077547938 -0.26994899 1.5400001
-0.073494583 -0.26977369 1.539
-0.069491588 -0.26977369 1.539
-0.065488592 -0.26977369 1.539
-0.061525546 -0.26994899 1.5400001
-0.057594653 -0.27029955 1.5420001
-0.053653352 -0.27065015 1.544
-0.049733792 -0.27117601 1.5470001
-0.046123657 -0.27363011 1.5610001
-0.04214428 -0.27415597 1.5640001
-0.038149294 -0.27468184 1.567
-0.034160443 -0.27538303 1.5710001
-0.030093357 -0.27555829 1.572
-0.026070697 -0.27625948 1.5760001
-0.022027226 -0.27696064 1.58
-0.017985631 -0.27801239 1.5860001
-0.013886603 -0.27853829 1.5890001
-0.0097719692 -0.27906415 1.5920001
-0.0056381924 -0.27941474 1.5940001
-0.0014949472 -0.27994061 1.5970001
0.0026605742 -0.28011587 1.598
0.0068724891 -0.28239468 1.6110001
0.011069627 -0.28256997 1.6120001
0.015262499 -0.28256997 1.6120001
0.019443301 -0.28239468 1.6110001
0.023618903 -0.28221941 1.6100001
0.027582049 -0.27994061 1.5970001
0.031875011 -0.28116766 1.6040001
0.036047075 -0.28116766 1.6040001
0.04011884 -0.28046647 1.6
0.044252824 -0.2802912 1.5990001
0.048654094 -0.28169352 1.6070001
0.052833963 -0.28169352 1.6070001
0.056588084 -0.27959001 1.595
0.060622502 -0.27906415 1.5920001
0.064681984 -0.27871355 1.59
0.068774357 -0.27853829 1.5890001
0.072815649 -0.27818769 1.5870001
0.076846518 -0.2778371 1.585
0.080969162 -0.2778371 1.585
0.085038126 -0.27766183 1.5840001
0.08915817 -0.27766183 1.5840001
0.093219317 -0.2774865 1.5830001
0.097336762 -0.2774865 1.5830001
0.1014542 -0.2774865 1.5830001
0.10557165 -0.2774865 1.5830001
0.11017413 -0.27871355 1.59
0.11423789 -0.27853829 1.5890001
0.11837094 -0.27853829 1.5890001
0.12250399 -0.27853829 1.5890001
0.12679642 -0.27888885 1.5910001
0.13101697 -0.27906415 1.5920001
0.13507293 -0.27888885 1.5910001
0.13929868 -0.27906415 1.5920001
0.14352962 -0.27923942 1.5930001
0.14776577 -0.27941474 1.5940001
0.15200713 -0.27959001 1.595
0.1562537 -0.27976531 1.5960001
0.16040495 -0.27976531 1.5960001
0.16486552 -0.2802912 1.5990001
0.16902459 -0.2802912 1.5990001
0.17318363 -0.2802912 1.5990001
0.17723177 -0.28011587 1.598
0.18116122 -0.27976531 1.5960001
0.18531248 -0.27976531 1.5960001
0.18946373 -0.27976531 1.5960001
0.19361499 -0.27976531 1.5960001
0.19776624 -0.27976531 1.5960001
0.20356219 -0.28204411 1.6090001
0.20774727 -0.28204411 1.6090001
0.21206404 -0.28221941 1.6100001
0.21638604 -0.28239468 1.6110001
0.22071324 -0.28256997 1.6120001
0.22337137 -0.28064176 1.6010001
0.22767776 -0.28081706 1.6020001
0.23213407 -0.28116766 1.6040001
0.23645344 -0.28134292 1.605
0.24062811 -0.28134292 1.605
0.24510783 -0.28169352 1.6070001
0.24928769 -0.28169352 1.6070001
0.2536253 -0.28186879 1.608
0.25780773 -0.28186879 1.608
0.26199022 -0.28186879 1.608
0.26633823 -0.28204411 1.6090001
0.27069142 -0.28221941 1.6100001
0.2748791 -0.28221941 1.6100001
0.27906677 -0.28221941 1.6100001
0.28325444 -0.28221941 1.6100001
0.28762063 -0.28239468 1.6110001
0.29199204 -0.28256997 1.6120001
0.29618493 -0.28256997 1.6120001
0.30037779 -0.28256997 1.6120001
0.30457065 -0.28256997 1.6120001
0.30857199 -0.28239468 1.6110001
0.31256813 -0.28221941 1.6100001
0.31655905 -0.28204411 1.6090001
0.32034543 -0.28169352 1.6070001
0.32412142 -0.28134292 1.605
0.32645515 -0.27976531 1.5960001
0.33019212 -0.27941474 1.5940001
0.33391869 -0.27906415 1.5920001
0.33784717 -0.27888885 1.5910001
0.34177047 -0.27871355 1.59
0.34590611 -0.27871355 1.59
0.35004178 -0.27871355 1.59
0.35417742 -0.27871355 1.59
0.35876378 -0.27906415 1.5920001
0.3631326 -0.27923942 1.5930001
0.36773714 -0.27959001 1.595
0.37211895 -0.27976531 1.5960001
0.3769775 -0.2802912 1.5990001
0.38185164 -0.28081706 1.6020001
0.38674137 -0.28134292 1.605
0.39189029 -0.28204411 1.6090001
0.39706001 -0.28274527 1.613
0.40225053 -0.28344643 1.6170001
0.40922141 -0.28537464 1.628
0.41447178 -0.2860758 1.6320001
0.4194864 -0.28660169 1.6350001
0.42399824 -0.28677696 1.636
0.42903882 -0.28730285 1.6390001
0.43409505 -0.28782871 1.6420001
0.43889987 -0.28817931 1.6440001
0.44344556 -0.28835461 1.6450001
0.44772425 -0.28835461 1.6450001
0.45172819 -0.28817931 1.6440001
0.45600429 -0.28817931 1.6440001
0.46028039 -0.28817931 1.6440001
0.46427396 -0.28800401 1.6430001
0.46854746 -0.28800401 1.6430001
0.47253314 -0.28782871 1.6420001
0.47651368 -0.28765342 1.641
0.48048902 -0.28747815 1.6400001
0.4844591 -0.28730285 1.6390001
0.48842406 -0.28712755 1.6380001
0.49238375 -0.28695226 1.6370001
0.49664164 -0.28695226 1.6370001
0.5005936 -0.28677696 1.636
0.50515747 -0.28695226 1.6370001
0.50910413 -0.28677696 1.636
0.51335949 -0.28677696 1.636
0.51793116 -0.28695226 1.6370001
0.52187002 -0.28677696 1.636
0.52612537 -0.28677696 1.636
0.53038067 -0.28677696 1.636
0.5346359 -0.28677696 1.636
0.53856188 -0.28660169 1.6350001
0.54281455 -0.28660169 1.6350001
0.54639804 -0.2862511 1.6330001
0.55266869 -0.28730285 1.6390001
0.55625224 -0.28695226 1.6370001
0.56016773 -0.28677696 1.636
0.55959296 -0.28432289 1.6220001
0.56589746 -0.28537464 1.628
0.56873119 -0.28467348 1.6240001
0.56872159 -0.28256997 1.6120001
0.57149285 -0.28186879 1.608
0.57460129 -0.28134292 1.605
0.57733351 -0.28064176 1.6010001
0.58077139 -0.2802912 1.5990001
0.58346719 -0.27959001 1.595
0.58466858 -0.27818769 1.5870001
0.37575588 -0.16810459 0.95900005
0.37825027 -0.16810459 0.95900005
0.38034764 -0.16792931 0.95800006
0.38243979 -0.16775401 0.95700002
0.38452679 -0.16757871 0.95600003
0.38660854 -0.16740343 0.95500004
0.38827768 -0.16705285 0.95300007
0.38993639 -0.16670226 0.95100003
0.39158475 -0.16635168 0.94900006
0.39322266 -0.1660011 0.94700003
0.39485019 -0.16565052 0.94500005
0.3964673 -0.16529992 0.94300002
0.39849705 -0.16512464 0.94200003
0.40009594 -0.16477406 0.94000006
0.40168446 -0.16442347 0.93800002
0.40369341 -0.16424818 0.93700004
0.40569714 -0.16407289 0.93600005
0.40813172 -0.16407289 0.93600005
0.41056627 -0.16407289 0.93600005
0.41300085 -0.16407289 0.93600005
0.41543543 -0.16407289 0.93600005
0.41786999 -0.16407289 0.93600005
0.42030457 -0.16407289 0.93600005
0.42319077 -0.16424818 0.93700004
0.42608219 -0.16442347 0.93800002
0.42897883 -0.16459876 0.93900007
0.43188065 -0.16477406 0.94000006
0.43478766 -0.16494934 0.94100004
0.43723524 -0.16494934 0.94100004
0.44015005 -0.16512464 0.94200003
0.44307008 -0.16529992 0.94300002
0.44552284 -0.16529992 0.94300002
0.44845068 -0.16547522 0.94400007
0.45138374 -0.16565052 0.94500005
0.45384172 -0.16565052 0.94500005
0.45678252 -0.1658258 0.94600004
0.4597286 -0.1660011 0.94700003
0.46219176 -0.1660011 0.94700003
0.46465492 -0.1660011 0.94700003
0.46711814 -0.1660011 0.94700003
0.46908545 -0.1658258 0.94600004
0.47054911 -0.16547522 0.94400007
0.47200236 -0.16512464 0.94200003
0.47243786 -0.16442347 0.93800002
-1.2980351 -0.42378256 2.4540002
-1.285336 -0.42171025 2.4420002
-1.2800316 -0.4220556 2.444
-1.2757593 -0.42274639 2.4480002
-1.2683549 -0.42240101 2.4460001
-1.2578653 -0.42101949 2.4380002
-1.2510107 -0.42084679 2.437
-1.2390538 -0.41894719 2.4260001
-1.2307111 -0.41825643 2.4220002
-1.2234002 -0.41791105 2.4200001
-1.2161 -0.4175657 2.4180002
-1.2093103 -0.41739297 2.4170001
-1.2025257 -0.41722029 2.4160001
-1.197232 -0.4175657 2.4180002
-1.1860174 -0.41583878 2.4080002
-1.1787742 -0.4154934 2.4060001
-1.1720288 -0.41532072 2.4050002
-1.166258 -0.4154934 2.4060001
-1.1590357 -0.41514799 2.404
-1.1527827 -0.41514799 2.404
-1.1465298 -0.41514799 2.404
-1.1407514 -0.41532072 2.4050002
-1.1344959 -0.41532072 2.4050002
-1.1282403 -0.41532072 2.4050002
-1.1224514 -0.4154934 2.4060001
-1.1171211 -0.41583878 2.4080002
-1.1117804 -0.41618416 2.4100001
-1.1059706 -0.41635683 2.411
-1.1033485 -0.41773838 2.4190001
-1.0975101 -0.41791105 2.4200001
-1.088961 -0.41704762 2.4150002
-1.0826795 -0.41704762 2.4150002
-1.0839751 -0.41998336 2.4320002
-1.0816375 -0.42153758 2.4410002
-1.0779313 -0.42257369 2.447
-1.0737562 -0.42343715 2.4520001
-1.0699903 -0.42447332 2.4580002
-1.0653278 -0.42516407 2.4620001
-1.0670961 -0.42844519 2.4810002
-1.0593604 -0.42792711 2.4780002
-1.0541897 -0.42844519 2.4810002
-1.0490035 -0.42896327 2.4840002
-1.0438017 -0.42948133 2.4870002
-1.038167 -0.42982671 2.4890001
-1.031693 -0.42982671 2.4890001
-1.0256308 -0.42999938 2.49
-1.0191543 -0.42999938 2.49
-1.0126777 -0.42999938 2.49
-1.0062011 -0.42999938 2.49
-0.99972457 -0.42999938 2.49
-0.99324793 -0.42999938 2.49
-0.98637515 -0.42982671 2.4890001
-0.97990119 -0.42982671 2.4890001
-0.97303605 -0.42965403 2.4880002
-0.96695316 -0.42982671 2.4890001
-0.96086508 -0.42999938 2.49
-0.95438844 -0.42999938 2.49
-0.94791192 -0.42999938 2.49
-0.94181347 -0.43017209 2.4910002
-0.93570971 -0.43034476 2.4920001
-0.92997372 -0.43069017 2.4940002
-0.9242273 -0.43103552 2.4960001
-0.91847044 -0.43138093 2.4980001
-0.91270322 -0.43172628 2.5
-0.90656316 -0.43189898 2.5010002
-0.89933813 -0.4315536 2.4990001
-0.89283818 -0.4315536 2.4990001
-0.88598353 -0.43138093 2.4980001
-0.8794862 -0.43138093 2.4980001
-0.87194031 -0.43086284 2.4950001
-0.86475694 -0.43051744 2.493
-0.85723978 -0.42999938 2.49
-0.85007983 -0.42965403 2.4880002
-0.84326947 -0.42948133 2.4870002
-0.83646417 -0.42930862 2.4860001
-0.82999796 -0.42930862 2.4860001
-0.82353181 -0.42930862 2.4860001
-0.816737 -0.42913595 2.4850001
-0.81125158 -0.42965403 2.4880002
-0.80478019 -0.42965403 2.4880002
-0.79734623 -0.42913595 2.4850001
-0.79024607 -0.42879054 2.483
-0.78315645 -0.42844519 2.4810002
-0.77607715 -0.42809978 2.4790001
-0.76590359 -0.42602748 2.467
-0.75825542 -0.42533675 2.4630001
-0.75062805 -0.42464599 2.4590001
-0.74302149 -0.42395523 2.4550002
-0.73573577 -0.42343715 2.4520001
-0.72638351 -0.42171025 2.4420002
-0.72239053 -0.42309177 2.45
-0.70228219 -0.41497532 2.4030001
-0.69632155 -0.41514799 2.404
-0.6900686 -0.41514799 2.404
-0.68296236 -0.41462991 2.401
-0.67587173 -0.41411185 2.398
-0.66907603 -0.4137665 2.3960001
-0.66256726 -0.4135938 2.3950002
-0.42392865 -0.28044939 1.6240001
-0.41944611 -0.28027672 1.623
-0.414713 -0.27993134 1.6210001
-0.41024345 -0.27975866 1.6200001
-0.40602979 -0.27975866 1.6200001
-0.40156806 -0.27958596 1.6190001
-0.39711154 -0.27941325 1.618
-0.39387441 -0.28010401 1.6220001
-0.3896555 -0.28010401 1.6220001
-0.38543665 -0.28010401 1.6220001
-0.38121775 -0.28010401 1.6220001
-0.37676644 -0.27993134 1.6210001
-0.37232035 -0.27975866 1.6200001
-0.36787942 -0.27958596 1.6190001
-0.36321911 -0.27924058 1.6170001
-0.3587912 -0.27906787 1.6160001
-0.35371023 -0.27837712 1.6120001
-0.34908372 -0.27803174 1.6100001
-0.34425339 -0.27751368 1.6070001
-0.33711082 -0.275096 1.5930001
-0.33275837 -0.27492332 1.5920001
-0.324902 -0.27181488 1.5740001
-0.31938121 -0.27060604 1.567
-0.31450054 -0.26991528 1.5630001
-0.30964065 -0.26922449 1.559
-0.30499762 -0.26870644 1.5560001
-0.30056354 -0.26836106 1.554
-0.29613993 -0.26801568 1.552
-0.29229134 -0.26818839 1.5530001
-0.28862315 -0.26853377 1.5550001
-0.28494453 -0.26887915 1.557
-0.28143597 -0.2693972 1.5600001
-0.27808958 -0.27008799 1.5640001
-0.27489758 -0.27095142 1.5690001
-0.27167958 -0.27181488 1.5740001
-0.26843554 -0.27267835 1.5790001
-0.26516551 -0.27354178 1.5840001
-0.26186949 -0.27440524 1.5890001
-0.25870964 -0.27544138 1.595
-0.25535899 -0.27630481 1.6
-0.2519823 -0.27716827 1.605
-0.24857964 -0.27803174 1.6100001
-0.24515097 -0.2788952 1.6150001
-0.24154705 -0.27958596 1.6190001
-0.23777576 -0.28010401 1.6220001
-0.2354288 -0.28234899 1.6350001
-0.2310347 -0.28217632 1.6340001
-0.22664581 -0.28200364 1.6330001
-0.22198977 -0.28148556 1.6300001
-0.21788365 -0.28165823 1.631
-0.21351036 -0.28148556 1.6300001
-0.20927069 -0.28148556 1.6300001
-0.2049052 -0.28131285 1.6290001
-0.20054492 -0.28114015 1.628
-0.19618985 -0.28096747 1.6270001
-0.19172201 -0.28062209 1.6250001
-0.18726455 -0.28027672 1.623
-0.18293029 -0.28010401 1.6220001
-0.17838088 -0.27958596 1.6190001
-0.17395462 -0.27924058 1.6170001
-0.1695388 -0.2788952 1.6150001
-0.16513337 -0.27854979 1.613
-0.16073835 -0.27820441 1.6110001
-0.15635373 -0.27785903 1.6090001
-0.15188494 -0.27734098 1.6060001
-0.14743176 -0.27682289 1.603
-0.14192171 -0.27423254 1.5880001
-0.13857222 -0.27578676 1.5970001
-0.13408168 -0.275096 1.5930001
-0.12936725 -0.27388716 1.5860001
-0.12508406 -0.27354178 1.5840001
-0.12081128 -0.2731964 1.582
-0.11647516 -0.27267835 1.5790001
-0.11215462 -0.27216026 1.5760001
-0.10784969 -0.27164218 1.5730001
-0.10349442 -0.27095142 1.5690001
-0.099223316 -0.27043337 1.5660001
-0.094967805 -0.26991528 1.5630001
-0.09078607 -0.2695699 1.5610001
-0.085892484 -0.26697955 1.5460001
-0.08171241 -0.26646146 1.5430001
-0.077547938 -0.26594341 1.5400001
-0.073494583 -0.2657707 1.539
-0.069446437 -0.26559803 1.5380001
-0.065446042 -0.26559803 1.5380001
-0.061445646 -0.26559803 1.5380001
-0.0574826 -0.2657707 1.539
-0.053549103 -0.26611611 1.5410001
-0.049637347 -0.26663417 1.544
-0.046035014 -0.26905182 1.5580001
