# .PCD v0.7 - Point Cloud Data file format
VERSION 0.7
FIELDS x y z
SIZE 4 4 4
TYPE F F F
COUNT 1 1 1
WIDTH 1530
HEIGHT 1
VIEWPOINT 0 0 0 1 0 0 0
POINTS 1530
DATA ascii
0.91292173 0.22543582 1.9430001
0.91561323 0.22485569 1.9380001
0.937756 0.22903258 1.9740001
0.94289047 0.22903258 1.9740001
0.94802493 0.22903258 1.9740001
0.95219362 0.22880054 1.9720001
0.97091568 0.23204921 2
0.98636705 0.23448575 2.0210001
1.0019275 0.23692225 2.0420001
1.0240098 0.24086711 2.0760002
1.0403185 0.24341963 2.098
1.0662124 0.24817665 2.1390002
1.0722772 0.24829267 2.1400001
1.0944643 0.25212148 2.1730001
1.1016351 0.25246957 2.1760001
1.1083127 0.25270161 2.1780002
1.1144892 0.25281763 2.1790001
-1.4990324 0.33784583 2.848
-1.4937195 0.33832034 2.8520002
-1.488907 0.33891347 2.8570001
-1.4840686 0.3395066 2.8620002
-1.4786882 0.33998111 2.8660002
-1.4727738 0.34033698 2.8690002
-1.4668436 0.34069288 2.8720002
-1.4603895 0.3409301 2.8740001
-1.4539253 0.34116736 2.8760002
-1.4479536 0.34152323 2.8790002
-1.4419662 0.34187913 2.8820002
-1.4359632 0.342235 2.8850002
-1.4299446 0.34259087 2.8880002
-1.4239104 0.34294674 2.891
-1.4173707 0.34318399 2.8930001
-1.4122825 0.34377715 2.8980002
-1.4154087 0.34638688 2.9200001
-1.408778 0.34662414 2.9220002
-1.4016572 0.34674275 2.9230001
-1.4155161 0.35208091 2.9680002
-1.4073219 0.3519623 2.9670002
-1.4000763 0.35208091 2.9680002
-1.4158126 0.3580122 3.0180001
-1.4084291 0.35813081 3.0190001
-1.4279479 0.36512974 3.0780001
-1.4204034 0.36524838 3.0790002
-1.4357893 0.37129828 3.1300001
-1.4221746 0.36987475 3.118
-1.4294842 0.37390804 3.1520002
-1.4415771 0.37924621 3.1970003
-1.435503 0.37983933 3.2020001
-1.4320773 0.3811442 3.2130001
-1.4250495 0.38150007 3.2160001
-1.4171251 0.38161871 3.2170002
-1.4083196 0.38150007 3.2160001
-1.3838483 0.37711093 3.1790001
-1.3755795 0.37711093 3.1790001
-1.3561281 0.37402666 3.1530001
-1.347927 0.37402666 3.1530001
-1.3142316 0.36690912 3.0930002
-1.3061867 0.36690912 3.0930002
-1.2796748 0.3616896 3.0490003
-1.271327 0.36157095 3.0480001
-1.2497205 0.35765633 3.0150001
-1.2406427 0.35730043 3.0120001
-1.229534 0.35635144 3.0040002
-1.219687 0.35575831 2.9990001
-1.21027 0.3552838 2.9950001
-1.2008741 0.35480931 2.9910002
-1.1922965 0.35457206 2.9890001
-1.1829368 0.35409755 2.9850001
-1.1735981 0.35362306 2.9810002
-1.1634977 0.35291129 2.9750001
-1.1538172 0.35231817 2.97
-1.1445485 0.35184366 2.9660001
-1.1333843 0.35077605 2.9570003
-1.1173179 0.34816629 2.9350002
-1.1093059 0.34804767 2.9340003
-1.1005479 0.34769177 2.9310002
-1.0772631 0.34270951 2.8890002
-1.0693785 0.34259087 2.8880002
-1.0611312 0.34235361 2.8860002
-1.0404817 0.33808309 2.8500001
-1.0323437 0.33784583 2.848
-1.018818 0.3358292 2.8310001
-1.0121691 0.33606645 2.8330002
-1.004091 0.3358292 2.8310001
-0.99672753 0.3358292 2.8310001
-0.98936391 0.3358292 2.8310001
-0.98234725 0.33594781 2.832
-0.97222698 0.33499882 2.8240001
-0.96590662 0.33535472 2.8270001
-0.95957077 0.33571059 2.8300002
-0.95321923 0.33606645 2.8330002
-0.94618428 0.33618507 2.8340001
-0.93947554 0.33642235 2.8360002
-0.93604302 0.33784583 2.848
-0.92896128 0.33796448 2.8490002
-0.9218744 0.33808309 2.8500001
-0.91414064 0.33796448 2.8490002
-0.90609366 0.33772722 2.8470001
-0.89426929 0.33606645 2.8330002
-0.88627446 0.3358292 2.8310001
-0.87829 0.33559197 2.8290002
-0.87308669 0.33642235 2.8360002
-0.86509961 0.33618507 2.8340001
-0.85833359 0.33642235 2.8360002
-0.85095704 0.33642235 2.8360002
-0.84358054 0.33642235 2.8360002
-0.83502448 0.33594781 2.832
-0.82648939 0.33547333 2.8280001
-0.8185544 0.33523607 2.8260002
-0.80144405 0.33120281 2.7920001
-0.794182 0.33120281 2.7920001
-0.77057278 0.32432252 2.7340002
-0.72715938 0.30890119 2.6040001
-0.56887162 0.25101188 2.1160002
-0.5455296 0.24306394 2.049
-0.53018177 0.23855618 2.0110002
-0.52338481 0.23784442 2.0050001
-0.51558536 0.23665817 1.9950001
-0.50604707 0.23464152 1.978
-0.49761012 0.2330994 1.9650002
-0.49024338 0.23203176 1.9560001
-0.48267537 0.23084551 1.9460001
-0.47810465 0.23108275 1.9480001
-0.47158083 0.23037101 1.9420002
-0.46508822 0.22965926 1.9360001
-0.45886448 0.22906612 1.9310001
-0.4526667 0.22847299 1.9260001
-0.44626254 0.22776124 1.9200001
-0.43988958 0.22704948 1.914
-0.43354782 0.22633773 1.9080001
-0.4272373 0.22562598 1.9020001
-0.42140204 0.22515148 1.8980001
-0.40681064 0.21993195 1.8540001
-0.40415657 0.22111821 1.8640001
-0.39845133 0.22064371 1.8600001
-0.3925553 0.22005057 1.8550001
-0.38668531 0.21945745 1.8500001
-0.37857068 0.21755944 1.8340001
-0.37339273 0.21732219 1.8320001
-0.36822519 0.21708493 1.83
-0.36346531 0.21708493 1.83
-0.35909745 0.21732219 1.8320001
-0.35471916 0.21755944 1.8340001
-0.3505213 0.21791531 1.8370001
-0.34649605 0.21838981 1.8410001
-0.34337804 0.21945745 1.8500001
-0.3411282 0.22111821 1.8640001
-0.33736235 0.22182997 1.8700001
-0.3332096 0.22230446 1.8740001
-0.33026251 0.22360934 1.8850001
-0.32570478 0.2238466 1.8870001
-0.3253867 0.22704948 1.914
-0.32074314 0.22728674 1.9160001
-0.31707799 0.22823575 1.9240001
-0.31288457 0.22882888 1.9290001
-0.30930358 0.2298965 1.9380001
-0.30693173 0.23191313 1.955
-0.30261868 0.23250626 1.96
-0.29812786 0.23298077 1.9640001
-0.29361618 0.23345527 1.9680001
-0.29509407 0.23879342 2.013
-0.29360202 0.24187769 2.039
-0.28985381 0.24318258 2.0500002
-0.32699224 0.28482017 2.401
-0.44332004 0.40961435 3.4530001
-0.47131971 0.44449031 3.7470002
-0.47610942 0.45848814 3.8650002
-0.469071 0.46145377 3.8900001
-0.45895296 0.46145377 3.8900001
-0.44883493 0.46145377 3.8900001
-0.44142365 0.46430078 3.9140003
-0.43686235 0.47035068 3.9650002
-0.42442438 0.4796035 4.0430002
-0.41667256 0.48280638 4.0700002
-0.41157398 0.48933077 4.125
-0.40346843 0.49253371 4.1520004
-0.39805958 0.49929532 4.2090001
-0.38977906 0.5027355 4.2380004
-0.38411811 0.50985307 4.2980003
-0.37554196 0.51341176 4.3280001
-0.36689392 0.51708919 4.3590002
-0.35555601 0.51708919 4.3590002
-0.34666607 0.52076662 4.3900003
-0.33524752 0.52076662 4.3900003
-0.32611567 0.52444398 4.421
-0.1110602 0.23713267 1.9990001
-0.10580777 0.23701404 1.9980001
-0.10056054 0.23689541 1.9970001
-0.095318511 0.23677678 1.9960001
-0.090081692 0.23665817 1.9950001
-0.084850065 0.23653954 1.9940001
-0.079583697 0.23630229 1.9920001
-0.07429038 0.23594642 1.9890001
-0.069047414 0.23570916 1.9870001
-0.063364774 0.23381114 1.9710001
-0.05817904 0.2335739 1.9690001
-0.053003706 0.23333666 1.9670001
-0.047838777 0.2330994 1.9650002
-0.042640757 0.23262489 1.9610001
-0.03746355 0.23215039 1.9570001
-0.001300239 0.16477102 1.3890001
0.0022460041 0.160026 1.3490001
0.0057377391 0.15955149 1.345
0.0092704687 0.16014461 1.35
0.012715593 0.15931424 1.3430001
0.016148441 0.15872112 1.3380001
0.019569948 0.15824662 1.3340001
0.022936106 0.15753485 1.3280001
0.026310794 0.15706037 1.3240001
0.029642198 0.15646721 1.319
0.032947596 0.15587409 1.314
0.03622698 0.15528096 1.309
0.039480358 0.15468784 1.304
0.042740602 0.15421334 1.3000001
0.045980033 0.15373883 1.296
0.049236745 0.15338297 1.2930001
0.05247784 0.15302709 1.2900001
0.055746619 0.15278983 1.2880001
0.058959108 0.15243396 1.2850001
0.062204473 0.15219671 1.2830001
0.065439433 0.15195945 1.281
0.068663985 0.15172219 1.279
0.071878143 0.15148495 1.2770001
0.075140774 0.15136632 1.276
0.078398213 0.15124771 1.2750001
0.081650443 0.15112907 1.274
0.084964171 0.15112907 1.274
0.08813931 0.15089183 1.2720001
0.091447823 0.15089183 1.2720001
0.094607353 0.15065457 1.2700001
0.097833581 0.15053594 1.2690001
0.10105459 0.15041731 1.268
0.10435271 0.15041731 1.268
0.10765083 0.15041731 1.268
0.11094894 0.15041731 1.268
0.11433715 0.15053594 1.2690001
0.11773057 0.15065457 1.2700001
0.1212245 0.15089183 1.2720001
0.12463091 0.15101044 1.273
0.12814306 0.15124771 1.2750001
0.13166559 0.15148495 1.2770001
0.13530423 0.15184084 1.2800001
0.13895848 0.15219671 1.2830001
0.14262833 0.15255257 1.286
0.1463138 0.15290846 1.289
0.15013099 0.15338297 1.2930001
0.15408768 0.1539761 1.2980001
0.15807039 0.15456922 1.3030001
0.16207911 0.15516235 1.3080001
0.16598731 0.15563685 1.312
0.17159486 0.1576535 1.3290001
0.17689565 0.15931424 1.3430001
0.18132907 0.16014461 1.35
0.19031724 0.16488965 1.3900001
0.21446051 0.1790061 1.5090001
0.26476589 0.20949289 1.766
0.27851081 0.21661043 1.8260001
0.29117176 0.22266033 1.8770001
0.29936618 0.22515148 1.8980001
0.30478391 0.22550736 1.9010001
0.30989143 0.22562598 1.9020001
0.31483859 0.22562598 1.9020001
0.31944948 0.22538874 1.9000001
0.32353783 0.22479559 1.8950001
0.32292011 0.22099957 1.863
0.3203766 0.21601731 1.8210001
0.3165434 0.21032327 1.7730001
0.30938113 0.20261261 1.7080001
0.30261573 0.19537644 1.6470001
0.30224118 0.1924108 1.6220001
0.29871354 0.18754715 1.5810001
0.29516417 0.18280213 1.5410001
0.29858994 0.18244624 1.5380001
0.29531083 0.17805709 1.501
0.29841763 0.17758259 1.4970001
0.30130166 0.17698947 1.4920001
0.30415967 0.17639634 1.4870001
0.3069917 0.17580321 1.4820001
0.30958793 0.17509146 1.4760001
0.31257766 0.17461696 1.4720001
0.31554657 0.17414245 1.4680001
0.31849471 0.17366795 1.4640001
0.32164216 0.17331207 1.4610001
0.32521951 0.17319344 1.46
0.32879168 0.17307483 1.4590001
0.33235863 0.1729562 1.4580001
0.33615097 0.1729562 1.4580001
0.34017643 0.17307483 1.4590001
0.34373558 0.1729562 1.4580001
0.34752789 0.1729562 1.4580001
0.35132021 0.1729562 1.4580001
0.3546254 0.17271894 1.4560001
0.35816634 0.17260031 1.455
0.36120453 0.17224443 1.452
0.36422718 0.17188857 1.4490001
0.36748812 0.1716513 1.447
0.37073871 0.17141406 1.4450001
0.37371969 0.17105818 1.442
0.37694687 0.17082094 1.4400001
0.38016364 0.17058368 1.4380001
0.38390392 0.17058368 1.4380001
0.38737461 0.17046505 1.437
0.39056796 0.1702278 1.4350001
0.39402568 0.17010917 1.434
0.39720082 0.16987193 1.432
0.40008557 0.16951604 1.429
0.40323731 0.1692788 1.427
0.40609345 0.16892292 1.424
0.40922177 0.16868567 1.4220001
0.41204932 0.16832979 1.419
0.41486123 0.16797391 1.416
0.41736197 0.16749941 1.4120001
0.41954374 0.16690628 1.4070001
0.42169946 0.16631316 1.4020001
0.4238292 0.16572003 1.3970001
0.42440301 0.16453378 1.3870001
0.42615908 0.16382201 1.381
0.42757282 0.16299164 1.3740001
0.42926392 0.16227987 1.368
0.43092379 0.16156814 1.3620001
0.43255243 0.16085638 1.3560001
0.43447152 0.16026326 1.3510001
0.43441936 0.15895836 1.34
0.43692434 0.15860248 1.337
0.43974316 0.15836523 1.335
0.44686753 0.15967011 1.3460001
0.45036849 0.15967011 1.3460001
0.45386949 0.15967011 1.3460001
0.45703068 0.15955149 1.345
0.46052906 0.15955149 1.345
0.46402746 0.15955149 1.345
0.46752587 0.15955149 1.345
0.73665673 0.24769035 2.0880001
0.74315393 0.24804622 2.0910001
0.74895066 0.24816485 2.092
0.75186777 0.24733447 2.085
0.76201272 0.2488766 2.098
0.76417732 0.24780896 2.089
0.77182138 0.24852072 2.095
0.77838361 0.2488766 2.098
0.78496146 0.24923249 2.1010001
0.79155487 0.24958836 2.1040001
0.79778516 0.24982563 2.1060002
0.80402571 0.25006285 2.108
0.80989271 0.2501815 2.1090002
0.81576496 0.25030011 2.1100001
0.82125312 0.25030011 2.1100001
0.82674128 0.25030011 2.1100001
0.8322295 0.25030011 2.1100001
0.8369236 0.25006285 2.108
0.84200698 0.24994424 2.1070001
0.84668291 0.24970698 2.105
0.85134846 0.24946974 2.1030002
0.85559618 0.24911386 2.1000001
0.86023819 0.2488766 2.098
0.86404473 0.2484021 2.0940001
0.8682456 0.24804622 2.0910001
0.87243086 0.24769035 2.0880001
0.87660056 0.24733447 2.085
0.88033158 0.24685997 2.0810001
0.88446742 0.24650408 2.0780001
0.88815951 0.2460296 2.0740001
0.88881487 0.24472472 2.0630002
0.89158016 0.24401297 2.0570002
0.88559353 0.24092869 2.0310001
0.88912165 0.2404542 2.0270002
0.89395267 0.24033555 2.026
0.88546336 0.23665817 1.9950001
0.88931304 0.23630229 1.9920001
0.88057393 0.23262489 1.9610001
0.88477135 0.23238765 1.9590001
0.88895828 0.23215039 1.9570001
0.88399786 0.22954062 1.9350001
0.88811201 0.22930337 1.9330001
0.88990545 0.22847299 1.9260001
0.89445037 0.22835436 1.9250001
0.8994574 0.22835436 1.9250001
0.90916288 0.22954062 1.9350001
0.91750312 0.23037101 1.9420002
0.92065406 0.2298965 1.9380001
0.92808318 0.23048963 1.9430001
0.93409747 0.23072688 1.9450001
0.93963933 0.23084551 1.9460001
0.9592647 0.23440428 1.9760001
0.96586853 0.23476015 1.9790001
0.98279178 0.23760717 2.003
0.99244106 0.2386748 2.0120001
1.0175087 0.24341983 2.052
1.0348094 0.24626686 2.0760002
1.0507314 0.24875799 2.0970001
1.073814 0.2529099 2.1320002
1.0818907 0.25350299 2.1370001
1.0899935 0.25409615 2.1420002
1.0981222 0.25468925 2.1470001
-1.4979798 0.34501114 2.8460002
-1.4931957 0.34561726 2.8510001
-1.4883859 0.34622341 2.8560002
-1.4830315 0.3467083 2.8600001
-1.4781723 0.34731445 2.8650002
-1.471747 0.34755689 2.8670001
-1.4658221 0.34792057 2.8700001
-1.4593734 0.34816304 2.8720002
-1.4529141 0.34840548 2.8740001
-1.4469476 0.34876916 2.8770001
-1.4409655 0.34913284 2.8800001
-1.4344699 0.34937531 2.8820002
-1.4284592 0.34973899 2.8850002
-1.4224329 0.35010266 2.8880002
-1.4159008 0.3503451 2.8900001
-1.4113078 0.35107246 2.8960001
-1.4168628 0.35434559 2.9230001
-1.40926 0.35434559 2.9230001
-1.4021367 0.3544668 2.924
-1.415993 0.35992202 2.9690001
-1.4077963 0.35980079 2.9680002
-1.4213039 0.36525601 3.0130002
-1.4270715 0.36877155 3.0420001
-1.4336214 0.3725296 3.0730002
-1.4400098 0.37628761 3.1040001
-1.449005 0.38077298 3.141
-1.4376242 0.37992442 3.1340001
-1.4550151 0.38671312 3.1900001
-1.4471713 0.38683435 3.1910002
-1.4533007 0.39071357 3.223
-1.4476074 0.39144096 3.2290001
-1.4343059 0.39010745 3.2180002
-1.4263788 0.39022869 3.2190001
-1.4180061 0.39022869 3.2190001
-1.4087576 0.38998625 3.2170002
-1.3855895 0.38586453 3.1830001
-1.3773104 0.38586453 3.1830001
-1.355698 0.38210651 3.1520002
-1.3338194 0.37822723 3.1200001
-1.3133818 0.37471166 3.0910001
-1.3036528 0.37422678 3.0870001
-1.279255 0.36949891 3.0480001
-1.267156 0.36828664 3.0380001
-1.2480625 0.36501354 3.0110002
-1.2365237 0.36392251 3.0020001
-1.226669 0.36331639 2.9970002
-1.2184669 0.36319512 2.9960001
-1.2086537 0.362589 2.9910002
-1.1992681 0.36210412 2.9870002
-1.1910998 0.36198285 2.9860001
-1.1817479 0.36149797 2.9820001
-1.1728106 0.36113429 2.9790001
-1.1631067 0.36052817 2.9740002
-1.1534287 0.35992202 2.9690001
-1.1445485 0.35955834 2.9660001
-1.1341509 0.35870975 2.9590001
-1.1173179 0.3558003 2.9350002
-1.11044 0.35604274 2.937
-1.1016743 0.35567909 2.9340003
-1.0828563 0.35204226 2.904
-1.0745624 0.35179985 2.9020002
-1.0607636 0.34973899 2.8850002
-1.0401167 0.34537482 2.8490002
-1.0319813 0.34513235 2.8470001
-1.0278151 0.34622341 2.8560002
-1.0221728 0.34682953 2.8610001
-1.0150861 0.34695077 2.8620002
-1.003417 0.34549603 2.8500001
-0.99600399 0.34549603 2.8500001
-0.98893785 0.34561726 2.8510001
-0.98221093 0.34585974 2.8530002
-0.9754734 0.34610215 2.855
-0.96872562 0.34634462 2.8570001
-0.96163094 0.34646586 2.858
-0.95419711 0.34646586 2.858
-0.94643217 0.34634462 2.8570001
-0.93670034 0.34549603 2.8500001
-0.92961341 0.34561726 2.8510001
-0.92219788 0.34561726 2.8510001
-0.91446149 0.34549603 2.8500001
-0.90673023 0.34537482 2.8490002
-0.90089816 0.34598094 2.8540001
-0.89316183 0.34585974 2.8530002
-0.88512003 0.34561726 2.8510001
-0.87708884 0.34537482 2.8490002
-0.86906797 0.34513235 2.8470001
-0.85924155 0.34416255 2.8390002
-0.85155714 0.34404132 2.8380001
-0.8441754 0.34404132 2.8380001
-0.83531934 0.3434352 2.8330002
-0.82678169 0.34295028 2.8290002
-0.81884402 0.34270784 2.8270001
-0.80201817 0.33870736 2.7940001
-0.79475093 0.33870736 2.7940001
-0.77000904 0.3311913 2.7320001
-0.72101593 0.31300727 2.582
-0.55704248 0.25118166 2.072
-0.5378086 0.24487789 2.02
-0.52411801 0.24099864 1.988
-0.51711982 0.24015005 1.9810001
-0.5111919 0.23978637 1.978
-0.50527954 0.23942271 1.9750001
-0.49786332 0.23833166 1.9660001
-0.4897421 0.23687693 1.9540001
-0.48242733 0.23578589 1.9450001
-0.47810465 0.23614958 1.9480001
-0.47158083 0.23542222 1.9420002
-0.46532843 0.23481607 1.937
-0.45910209 0.23420994 1.932
-0.45290172 0.23360381 1.927
-0.446495 0.23287646 1.9210001
-0.44011942 0.23214909 1.9150001
-0.43354782 0.23130052 1.9080001
-0.4272373 0.23057315 1.9020001
-0.42118001 0.22996701 1.8970001
-0.41470987 0.22911844 1.8900001
-0.40415657 0.22596653 1.8640001
-0.39845133 0.22548163 1.8600001
-0.39276689 0.22499672 1.8560001
-0.38689432 0.22439058 1.8510001
-0.38125411 0.22390568 1.8470001
-0.37359655 0.2222085 1.8330001
-0.36842644 0.22196606 1.8310001
-0.36366391 0.22196606 1.8310001
-0.35929346 0.2222085 1.8330001
-0.35491258 0.22245096 1.835
-0.35071209 0.22281463 1.8380001
-0.34668428 0.22329955 1.8420001
-0.34393483 0.22463304 1.853
-0.34204325 0.22657266 1.8690001
-0.33808395 0.2271788 1.8740001
-0.33445424 0.22802739 1.881
-0.33113855 0.22911844 1.8900001
-0.32570478 0.22875474 1.8870001
-0.32487673 0.2316642 1.9110001
-0.32091051 0.23239155 1.9170001
-0.31707799 0.23324014 1.9240001
-0.31401998 0.23469485 1.9360001
-0.31026119 0.23566467 1.9440001
-0.30661774 0.2367557 1.9530001
-0.30230987 0.23736183 1.9580001
-0.29767245 0.23772553 1.9610001
-0.29301941 0.2380892 1.9640001
-0.29465428 0.24366562 2.01
-0.28971422 0.24390808 2.0120001
-0.28433952 0.24378687 2.0110002
-0.48616242 0.46854115 3.8650002
-0.4916307 0.48381567 3.9910002
-0.46780169 0.48066378 3.9650002
-0.45748857 0.48066378 3.9650002
-0.45010775 0.48381567 3.9910002
-0.44545636 0.49011949 4.0430002
-0.43784496 0.49339259 4.0700002
-0.42230323 0.50006002 4.125
-0.41716143 0.50684875 4.1810002
-0.40900734 0.51024312 4.2090001
-0.40363941 0.5173955 4.2680001
-0.39529738 0.52103227 4.2980003
-0.38956976 0.52842712 4.3590002
-0.38092172 0.53218514 4.3900003
-0.37211239 0.53594315 4.421
-0.36061323 0.53594315 4.421
-0.35164097 0.5398224 4.4530001
-0.34257865 0.54382288 4.4860001
-0.33334467 0.54782337 4.5190001
-0.111338 0.24293828 2.0040002
-0.10607255 0.24281703 2.003
-0.10081232 0.24269582 2.0020001
-0.095605046 0.24269582 2.0020001
-0.09035261 0.2425746 2.0010002
-0.085105382 0.24245335 2
-0.079823405 0.24221091 1.9980001
-0.074514486 0.24184723 1.9950001
-0.069221161 0.24148355 1.9920001
-0.063911296 0.24099864 1.988
-0.058267683 0.23905902 1.9720001
-0.0530576 0.23869534 1.9690001
-0.047838777 0.23821044 1.9650002
-0.042619012 0.23760429 1.96
-0.03746355 0.23724063 1.9570001
-0.032174811 0.23578589 1.9450001
-0.026850911 0.2334826 1.9260001
-0.0013432994 0.17396028 1.4350001
0.0023159315 0.16862631 1.391
0.0092773363 0.16377725 1.3510001
0.012715593 0.16280743 1.3430001
0.016148441 0.1622013 1.3380001
0.019555278 0.16159517 1.3330001
0.022936106 0.16098903 1.3280001
0.026290921 0.1603829 1.3230001
0.029597253 0.15965554 1.317
0.032897446 0.15904941 1.312
0.03617163 0.15844327 1.307
0.039419804 0.15783714 1.302
0.042674851 0.15735224 1.2980001
0.045909077 0.15686733 1.294
0.049122505 0.15638243 1.2900001
0.0523558 0.15601873 1.2870001
0.055616774 0.15577629 1.2850001
0.058821458 0.1554126 1.2820001
0.062059019 0.15517016 1.2800001
0.065286182 0.1549277 1.2780001
0.068502925 0.15468524 1.276
0.071765572 0.15456402 1.2750001
0.075023003 0.15444279 1.274
0.078336723 0.15444279 1.274
0.081586353 0.15432155 1.273
0.084897473 0.15432155 1.273
0.08813931 0.15420035 1.2720001
0.091447823 0.15420035 1.2720001
0.094681844 0.15407911 1.271
0.097987771 0.15407911 1.271
0.10121399 0.15395789 1.2700001
0.10451731 0.15395789 1.2700001
0.10782063 0.15395789 1.2700001
0.11121144 0.15407911 1.271
0.11460746 0.15420035 1.2720001
0.11810137 0.15444279 1.274
0.12160571 0.15468524 1.276
0.12502253 0.15480648 1.2770001
0.12864557 0.15517016 1.2800001
0.13218111 0.1554126 1.2820001
0.13572705 0.15565506 1.284
0.13950002 0.15613997 1.2880001
0.14318286 0.15650363 1.291
0.14676784 0.1567461 1.2930001
0.15071154 0.15735224 1.2980001
0.15468124 0.15795837 1.3030001
0.15867694 0.15856451 1.3080001
0.16269867 0.15917064 1.3130001
0.1649752 0.15807959 1.304
0.1719822 0.16147393 1.332
0.17702737 0.16292867 1.3440001
0.18132907 0.16365601 1.35
0.18963265 0.16789895 1.3850001
0.19853683 0.17250557 1.4230001
0.24205172 0.19917545 1.6430001
0.27362999 0.21748066 1.794
0.28993073 0.22657266 1.8690001
0.29447663 0.22633022 1.8670001
0.29965341 0.22657266 1.8690001
0.30516648 0.22705758 1.8730001
0.31003824 0.22705758 1.8730001
0.31474182 0.22693636 1.8720001
0.32046464 0.22754247 1.8770001
0.31772012 0.2222085 1.8330001
0.31404296 0.21638963 1.7850001
0.31225854 0.21202546 1.7490001
0.30811319 0.20620659 1.7010001
0.30096209 0.19856931 1.6380001
0.29702371 0.19323534 1.5940001
0.2947458 0.18911362 1.5600001
0.2949726 0.18668909 1.5400001
0.29820162 0.18620418 1.536
0.29452386 0.18147634 1.4970001
0.29762024 0.18099143 1.493
0.30049387 0.18038529 1.488
0.30334148 0.17977917 1.483
0.30616307 0.17917304 1.478
0.30916843 0.17868814 1.4740001
0.31215295 0.17820321 1.47
0.31511667 0.17771831 1.4660001
0.31827715 0.17735463 1.4630001
0.32142201 0.17699096 1.46
0.32477403 0.1767485 1.4580001
0.32834095 0.17662726 1.457
0.33213067 0.17662726 1.457
0.33592039 0.17662726 1.457
0.33971009 0.17662726 1.457
0.34326407 0.17650606 1.4560001
0.34681281 0.17638482 1.455
0.35035637 0.1762636 1.4540001
0.35389471 0.17614236 1.4530001
0.3571817 0.17589992 1.4510001
0.36020949 0.17553623 1.4480001
0.3632217 0.17517255 1.4450001
0.36647227 0.1749301 1.4430001
0.3694559 0.17456642 1.4400001
0.37268305 0.17432398 1.4380001
0.37589979 0.17408152 1.4360001
0.37910613 0.17383905 1.434
0.38256907 0.17371784 1.4330001
0.38602677 0.17359661 1.432
0.38920709 0.17335415 1.4300001
0.39265183 0.17323293 1.429
0.39581394 0.17299047 1.427
0.39868566 0.17262679 1.424
0.40182444 0.17238434 1.4220001
0.40466756 0.17202066 1.419
0.40778285 0.1717782 1.4170001
0.41088781 0.17153576 1.4150001
0.41339633 0.17105085 1.411
0.41588405 0.17056595 1.4070001
0.41805282 0.16995981 1.4020001
0.42019555 0.16935368 1.3970001
0.42231226 0.16874754 1.3920001
0.42348504 0.16777773 1.3840001
0.42554194 0.1671716 1.3790001
0.42695042 0.16632301 1.3720001
0.42895013 0.16571687 1.3670001
0.430291 0.16486828 1.36
0.43223342 0.16426215 1.355
0.43447152 0.16377725 1.3510001
0.43701291 0.16341357 1.348
0.43725115 0.1622013 1.3380001
0.44007257 0.16195884 1.3360001
0.44719952 0.16329235 1.3470001
0.45070311 0.16329235 1.3470001
0.45420671 0.16329235 1.3470001
0.45771033 0.16329235 1.3470001
0.45915949 0.16256498 1.3410001
0.46264747 0.16256498 1.3410001
0.46613547 0.16256498 1.3410001
0.47032386 0.16280743 1.3430001
0.74350935 0.2536062 2.092
0.74930876 0.25372747 2.0930002
0.75655568 0.25433359 2.098
0.76019669 0.25372747 2.0930002
0.7663722 0.25396988 2.095
0.77292663 0.25433359 2.098
0.77949667 0.25469726 2.1010001
0.78645587 0.25518215 2.105
0.79381216 0.2557883 2.1100001
0.79930037 0.2557883 2.1100001
0.80555135 0.25603074 2.112
0.81181276 0.25627321 2.1140001
0.817698 0.25639442 2.115
0.82280999 0.25627321 2.1140001
0.82791674 0.25615197 2.1130002
0.8330183 0.25603074 2.112
0.83771771 0.2557883 2.1100001
0.84280628 0.25566709 2.1090002
0.84748739 0.25542462 2.1070001
0.85175329 0.25506094 2.1040001
0.85600358 0.25469726 2.1010001
0.85982823 0.25421235 2.0970001
0.86404473 0.25384867 2.0940001
0.8682456 0.25348499 2.0910001
0.87159526 0.25287887 2.0860002
0.87575972 0.2525152 2.0830002
0.86764061 0.24863593 2.0510001
0.87042147 0.24790856 2.0450001
0.87274301 0.24705997 2.0380001
0.87761313 0.24693877 2.0370002
0.8811776 0.24645384 2.033
0.88428539 0.24584772 2.0280001
0.88868296 0.24560525 2.026
0.87321436 0.23990761 1.9790001
0.88191259 0.24087742 1.9870001
0.88440216 0.24015005 1.9810001
0.88102305 0.23784675 1.9620001
0.88160986 0.23663449 1.9520001
0.88396156 0.23590712 1.9460001
0.88308418 0.23433118 1.9330001
0.88535529 0.23360381 1.927
0.8889814 0.23324014 1.9240001
0.89259177 0.23287646 1.9210001
0.89712113 0.23275523 1.9200001
0.91010261 0.23481607 1.937
0.91514081 0.23481607 1.937
0.92017895 0.23481607 1.937
0.91518652 0.23227033 1.9160001
0.9206503 0.23239155 1.9170001
0.92708504 0.23275523 1.9200001
0.93547726 0.23360381 1.927
0.95854765 0.2380892 1.9640001
0.9631654 0.23796797 1.9630001
0.98208261 0.24136232 1.9910001
0.98775709 0.24148355 1.9920001
1.0188584 0.24778734 2.0440001
1.0251771 0.24802978 2.046
1.0516528 0.25312132 2.0880001
1.054046 0.25239393 2.082
1.0787984 0.25700057 2.1200001
1.085847 0.25736424 2.1230001
-1.4979798 0.35241371 2.8460002
-1.4931957 0.35303283 2.8510001
-1.4883859 0.353652 2.8560002
-1.4830315 0.35414729 2.8600001
-1.4781723 0.35476643 2.8650002
-1.471747 0.35501409 2.8670001
-1.4658221 0.35538557 2.8700001
-1.4593734 0.35563323 2.8720002
-1.4529141 0.35588086 2.8740001
-1.4469476 0.35625234 2.8770001
-1.4409655 0.35662383 2.8800001
-1.4339721 0.35674766 2.881
-1.427964 0.35711914 2.8840001
-1.4214478 0.3573668 2.8860002
-1.414921 0.35761449 2.8880002
-1.4269024 0.36256757 2.9280002
-1.4183171 0.36231992 2.9260001
-1.40926 0.36194843 2.9230001
-1.4256335 0.3681398 2.973
-1.4164699 0.36776832 2.97
-1.4291409 0.37309295 3.0130002
-1.4420598 0.37854135 3.0570002
-1.4486511 0.38238001 3.0880001
-1.4555479 0.3863425 3.1200001
-1.4622781 0.39030498 3.1520002
-1.4785296 0.39686787 3.2050002
-1.4637712 0.39513427 3.1910002
-1.4696108 0.39897293 3.2220001
-1.4607769 0.3988491 3.2210002
-1.4717883 0.4041737 3.2640002
-1.4637468 0.4042975 3.2650001
-1.4552544 0.4042975 3.2650001
-1.4410015 0.40268776 3.2520001
-1.4321024 0.40256393 3.2510002
-1.4078817 0.39810613 3.2150002
-1.3995194 0.39810613 3.2150002
-1.3682235 0.39154327 3.1620002
-1.3587087 0.39117178 3.1590002
-1.3171465 0.38151321 3.0810001
-1.3121071 0.38238001 3.0880001
-1.2846491 0.37668392 3.0420001
-1.2666639 0.37371206 3.0180001
-1.2538087 0.37222612 3.006
-1.2472335 0.3725976 3.0090001
-1.235288 0.37135935 2.9990001
-1.2254411 0.37074021 2.9940002
-1.21684 0.37049255 2.9920001
-1.2066332 0.36974958 2.9860001
-1.197662 0.36937809 2.983
-1.1895043 0.36925426 2.9820001
-1.1809554 0.36900663 2.9800003
-1.1720233 0.36863515 2.9770002
-1.1627154 0.3681398 2.973
-1.1534287 0.36764452 2.9690001
-1.1445485 0.36727303 2.9660001
-1.1349174 0.36665389 2.9610002
-1.1169373 0.36331055 2.9340003
-1.1111962 0.36392969 2.9390001
-1.1020498 0.36343437 2.9350002
-1.0802461 0.35872892 2.8970001
-1.0749327 0.35947189 2.9030001
-1.0662787 0.3591004 2.9000001
-1.0580057 0.35885274 2.8980002
-1.047568 0.35786211 2.8900001
-1.0382515 0.357243 2.8850002
-1.0339631 0.35835743 2.8940001
-1.0257263 0.35810977 2.8920002
-1.0146835 0.35687152 2.8820002
-1.0071871 0.35687152 2.8820002
-0.99899727 0.35662383 2.8800001
-0.99219483 0.35687152 2.8820002
-0.9853819 0.35711914 2.8840001
-0.97821969 0.357243 2.8850002
-0.9707157 0.357243 2.8850002
-0.96321166 0.357243 2.8850002
-0.95570767 0.357243 2.8850002
-0.9514904 0.35848126 2.8950002
-0.94396031 0.35848126 2.8950002
-0.93643034 0.35848126 2.8950002
-0.92537081 0.35711914 2.8840001
-0.91755116 0.35699531 2.8830001
-0.90942103 0.35674766 2.881
-0.90130138 0.35650003 2.8790002
-0.89381295 0.35650003 2.8790002
-0.88601667 0.35637617 2.878
-0.87792045 0.35612854 2.8760002
-0.86953181 0.35575706 2.8730001
-0.86085886 0.35526174 2.8690002
-0.85250413 0.35489026 2.8660002
-0.8447547 0.35476643 2.8650002
-0.83701044 0.3546426 2.8640001
-0.81884402 0.35006097 2.8270001
-0.81177789 0.3501848 2.8280001
-0.80442214 0.3501848 2.8280001
-0.76127177 0.33445868 2.7010002
-0.58224738 0.26561049 2.1450002
-0.54709536 0.25198942 2.0350001
-0.5298214 0.24641718 1.9900001
-0.52332711 0.24579804 1.9850001
-0.51738089 0.24542655 1.9820001
-0.51093346 0.24480741 1.9770001
-0.50476789 0.24431209 1.973
-0.49761012 0.24332148 1.9650002
-0.4897421 0.24195938 1.9540001
-0.48217931 0.24072111 1.9440001
-0.47810465 0.24121641 1.9480001
-0.47182363 0.24059726 1.9430001
-0.46556866 0.23997813 1.9380001
-0.45933971 0.23935899 1.9330001
-0.45337179 0.23886369 1.9290001
-0.44695985 0.23812072 1.9230001
-0.44057906 0.23737775 1.9170001
-0.43400228 0.23651095 1.9100001
-0.42746195 0.23564416 1.9030001
-0.42140204 0.23502502 1.8980001
-0.41536814 0.23440589 1.8930001
-0.40459019 0.23106253 1.8660001
-0.39887977 0.23056723 1.8620001
-0.39319015 0.2300719 1.858
-0.38731232 0.22945277 1.853
-0.38166696 0.22895746 1.8490001
-0.37380037 0.22710004 1.8340001
-0.36882886 0.22697622 1.8330001
-0.36406115 0.22697622 1.8330001
-0.35968548 0.22722387 1.835
-0.35529941 0.22747153 1.8370001
-0.35128453 0.22796685 1.8410001
-0.34706068 0.22833833 1.8440001
-0.34412044 0.2295766 1.8540001
-0.3411282 0.23081487 1.8640001
-0.33916643 0.23279612 1.8800001
-0.3356989 0.23378675 1.8880001
-0.33043772 0.23353907 1.886
-0.32656783 0.23428205 1.8920001
-0.32504672 0.2367586 1.9120001
-0.32107794 0.23750158 1.9180001
-0.31707799 0.23824455 1.9240001
-0.31418216 0.23985429 1.937
-0.31026119 0.24072111 1.9440001
-0.30614674 0.24146406 1.95
-0.30200109 0.24220702 1.9560001
-0.29736888 0.24257851 1.9590001
-0.29093066 0.24146406 1.95
-0.29450768 0.24876989 2.0090001
-0.50528187 0.49741596 4.0170002
-0.50813746 0.51078933 4.125
-0.49403185 0.50732219 4.0970001
-0.4833754 0.50732219 4.0970001
-0.47271895 0.50732219 4.0970001
-0.46206251 0.50732219 4.0970001
-0.45449108 0.51078933 4.125
-0.44978622 0.51772374 4.1810002
-0.44185063 0.52119088 4.2090001
-0.43090287 0.52119088 4.2090001
-0.41995513 0.52119088 4.2090001
-0.41474062 0.52849674 4.2680001
-0.40647665 0.5322116 4.2980003
-0.4009077 0.53976506 4.3590002
-0.39511076 0.54744232 4.421
-0.38638824 0.55140483 4.4530001
-0.37758341 0.55549115 4.4860001
-0.36591518 0.55549115 4.4860001
-0.3568528 0.55957747 4.5190001
-0.34761882 0.56366378 4.552
-0.11684126 0.24876989 2.0090001
-0.11156023 0.24864608 2.0080001
-0.10633734 0.24864608 2.0080001
-0.1010641 0.24852225 2.0070002
-0.095843822 0.24852225 2.0070002
-0.090578377 0.24839841 2.006
-0.085318148 0.24827459 2.0050001
-0.080023162 0.24802692 2.003
-0.074701235 0.24765544 2
-0.069394909 0.24728397 1.9970001
-0.064072043 0.24678867 1.9930001
-0.058740441 0.24616951 1.988
-0.05311149 0.24406444 1.9710001
-0.047863122 0.24344531 1.9660001
-0.042662501 0.24294999 1.9620001
-0.03746355 0.24233086 1.9570001
-0.032108642 0.24034962 1.9410001
-0.026892737 0.23886369 1.9290001
-0.020866053 0.227843 1.84
0.0092636021 0.1670436 1.3490001
0.012715593 0.16630064 1.3430001
0.016148441 0.1656815 1.3380001
0.019540608 0.16493852 1.332
0.022901563 0.16419557 1.3260001
0.026251178 0.16357642 1.3210001
0.029552307 0.16283345 1.3150001
0.032822225 0.16209048 1.309
0.036088604 0.16147135 1.304
0.039328974 0.16085221 1.299
0.042576216 0.16035691 1.2950001
0.045802642 0.15986158 1.291
0.049008265 0.15936628 1.2870001
0.052233756 0.15899479 1.284
0.055443645 0.15862331 1.281
0.058683813 0.15837565 1.279
0.061865084 0.15800416 1.276
0.065081842 0.15775652 1.274
0.068341874 0.15763268 1.273
0.071596712 0.15750886 1.2720001
0.074846335 0.15738504 1.271
0.078152254 0.15738504 1.271
0.081458174 0.15738504 1.271
0.084764101 0.15738504 1.271
0.088070013 0.15738504 1.271
0.091447823 0.15750886 1.2720001
0.094681844 0.15738504 1.271
0.097987771 0.15738504 1.271
0.10137338 0.15750886 1.2720001
0.1046819 0.15750886 1.2720001
0.10807532 0.15763268 1.273
0.11147394 0.15775652 1.274
0.11487776 0.15788035 1.2750001
0.11847219 0.15825184 1.2780001
0.12198693 0.15849949 1.2800001
0.12551205 0.15874714 1.2820001
0.1291481 0.15911862 1.2850001
0.13269664 0.15936628 1.2870001
0.13625558 0.15961394 1.289
0.14004156 0.16010925 1.2930001
0.14373741 0.16048072 1.296
0.14744888 0.16085221 1.299
0.15129209 0.16134752 1.3030001
0.15503737 0.16171901 1.3060001
0.15782776 0.16109988 1.3010001
0.16158344 0.16147135 1.304
0.16877064 0.1651862 1.3340001
0.17262778 0.16555767 1.337
0.17715909 0.16654828 1.345
0.18132907 0.16716743 1.35
0.18785271 0.16989164 1.3720001
0.20650174 0.17992169 1.4530001
0.22156936 0.18958023 1.531
0.28993073 0.23143402 1.8690001
0.29211074 0.22932895 1.8520001
0.29708815 0.22945277 1.853
0.30109325 0.22883363 1.848
0.3055689 0.22858597 1.8460001
0.31003416 0.22833833 1.8440001
0.31431827 0.22796685 1.8410001
0.3133868 0.22388053 1.8080001
0.30929273 0.21768914 1.7580001
0.30583125 0.21211688 1.7130001
0.29996204 0.20505872 1.6560001
0.29236525 0.19428571 1.5690001
0.29266745 0.19180913 1.549
0.29075873 0.18797049 1.5180001
0.29567781 0.18858963 1.5230001
0.29354015 0.18475097 1.4920001
0.29662353 0.18425564 1.488
0.2996861 0.18376034 1.4840001
0.30252329 0.1831412 1.4790001
0.30554163 0.18264589 1.475
0.30853918 0.18215059 1.4710001
0.31151593 0.18165527 1.4670001
0.31468681 0.18128379 1.4640001
0.31784204 0.1809123 1.4610001
0.32098171 0.18054081 1.4580001
0.32455125 0.18041699 1.457
0.32811561 0.18029317 1.4560001
0.33167478 0.18016933 1.455
0.33545929 0.18016933 1.455
0.33901066 0.18004552 1.4540001
0.34279257 0.18004552 1.4540001
0.3463361 0.17992169 1.4530001
0.34987444 0.17979784 1.452
0.35316402 0.1795502 1.45
0.35644323 0.17930254 1.4480001
0.35921445 0.17880724 1.4440001
0.36221626 0.17843576 1.4410001
0.3654564 0.17818809 1.439
0.36842963 0.17781661 1.4360001
0.37164634 0.17756896 1.434
0.37485269 0.1773213 1.432
0.37804869 0.17707364 1.4300001
0.38150117 0.17694981 1.429
0.3846789 0.17670216 1.427
0.38811842 0.17657834 1.4260001
0.39127794 0.17633067 1.424
0.39442706 0.17608303 1.4220001
0.39728579 0.17571154 1.419
0.40041155 0.17546389 1.4170001
0.40324166 0.1750924 1.414
0.40634397 0.17484474 1.4120001
0.4094359 0.1745971 1.4100001
0.41193143 0.17410177 1.406
0.41440615 0.17360647 1.4020001
0.4165619 0.17298733 1.3970001
0.4189924 0.17249201 1.393
0.42109871 0.17187287 1.388
0.42256707 0.17100608 1.381
0.42461616 0.17038694 1.376
0.42632806 0.16964398 1.3700001
0.42832252 0.16902484 1.365
0.430291 0.1684057 1.36
0.43223342 0.16778655 1.355
0.43479311 0.16741508 1.3520001
0.43701291 0.16691977 1.348
0.4398655 0.16667213 1.3460001
0.44073138 0.1656815 1.3380001
0.44786352 0.1670436 1.3490001
0.4513723 0.1670436 1.3490001
0.45285788 0.16630064 1.3430001
0.4563511 0.16630064 1.3430001
0.45984429 0.16630064 1.3430001
0.46333745 0.16630064 1.3430001
0.46683067 0.16630064 1.3430001
0.47102425 0.16654828 1.345
0.47452265 0.16654828 1.345
0.47944272 0.1670436 1.3490001
0.75691634 0.2599144 2.0990002
0.76019669 0.25917143 2.0930002
0.76710385 0.25966674 2.0970001
0.77366346 0.26003823 2.1000001
0.7813518 0.2607812 2.1060002
0.788324 0.26127651 2.1100001
0.79494083 0.261648 2.1130002
0.80081564 0.2617718 2.1140001
0.80707705 0.26201949 2.1160002
0.81296486 0.26214328 2.1170001
0.81847125 0.26214328 2.1170001
0.82397765 0.26214328 2.1170001
0.82870036 0.26189563 2.115
0.83380717 0.2617718 2.1140001
0.83851165 0.26152414 2.112
0.84320587 0.26127651 2.1100001
0.84748739 0.26090503 2.1070001
0.85175329 0.26053354 2.1040001
0.85600358 0.26016206 2.1010001
0.85982823 0.25966674 2.0970001
0.86404473 0.25929525 2.0940001
0.8678304 0.25879994 2.0900002
0.86114943 0.25520894 2.0610001
0.86482853 0.25471362 2.0570002
0.8672176 0.25384685 2.0500002
0.8712728 0.25347537 2.0470002
0.87231481 0.25223708 2.0370002
0.86985803 0.25000817 2.0190001
0.87684321 0.25050348 2.023
0.88341326 0.25087497 2.026
0.88692844 0.25037965 2.0220001
0.87012571 0.24418828 1.9720001
0.87392348 0.24381679 1.9690001
0.87859845 0.24369295 1.9680001
0.88012487 0.24270234 1.96
0.88115817 0.24158789 1.9510001
0.88350731 0.24084492 1.9450001
0.88262731 0.23923516 1.932
0.88489586 0.23849221 1.9260001
0.88805723 0.23799688 1.9220001
0.89166254 0.23762541 1.9190001
0.89571941 0.23737775 1.9170001
0.89788651 0.23663479 1.9110001
0.90096724 0.23613946 1.9070001
0.90640247 0.2362633 1.9080001
0.91327584 0.2367586 1.9120001
0.91824901 0.2367586 1.9120001
0.92467076 0.23713009 1.9150001
0.9296518 0.23713009 1.9150001
0.93414468 0.23700626 1.914
0.95384288 0.24072111 1.9440001
0.95840609 0.24059726 1.9430001
0.98379022 0.24567421 1.9840001
1.0009137 0.24864608 2.0080001
1.0096442 0.24951287 2.0150001
1.0365428 0.25483745 2.0580001
1.0408832 0.2545898 2.056
1.0472486 0.25483745 2.0580001
1.0756177 0.26040971 2.1030002
-1.4990324 0.3600691 2.848
-1.4937195 0.36057484 2.8520002
-1.488907 0.36120695 2.8570001
-1.4835501 0.36171266 2.8610001
-1.4792042 0.36247125 2.8670001
-1.4727738 0.36272413 2.8690002
-1.4663328 0.36297697 2.8710001
-1.4598814 0.36322981 2.8730001
-1.4534198 0.36348268 2.8750002
-1.4474505 0.36386195 2.878
-1.4419662 0.36436769 2.8820002
-1.4339721 0.36424124 2.881
-1.427964 0.36462054 2.8840001
-1.4214478 0.36487341 2.8860002
-1.4144311 0.36499983 2.8870001
-1.4278769 0.37043625 2.9300001
-1.420256 0.37043625 2.9300001
-1.431438 0.37536699 2.9690001
-1.4404989 0.379792 3.0040002
-1.4331623 0.37991843 3.0050001
-1.4500111 0.38649273 3.0570002
-1.4566832 0.390412 3.0880001
-1.4636631 0.39445773 3.1200001
-1.4704766 0.39850345 3.1520002
-1.4877938 0.40545705 3.2070003
-1.4757617 0.40444559 3.1990001
-1.4890007 0.41038772 3.2460001
-1.4787332 0.40988204 3.2420001
-1.4848132 0.41392776 3.2740002
-1.4731411 0.41304275 3.2670002
-1.4646435 0.41304275 3.2670002
-1.4561459 0.41304275 3.2670002
-1.446319 0.41266346 3.2640002
-1.4312214 0.41076702 3.2490001
-1.4074439 0.40634203 3.2140002
-1.3825424 0.40153775 3.1760001
-1.3695216 0.40014702 3.1650002
-1.3419346 0.39445773 3.1200001
-1.3158641 0.3891477 3.0780001
-1.2959607 0.38560772 3.0500002
-1.2736691 0.38130912 3.016
-1.2624669 0.38029772 3.0080001
-1.242547 0.37663126 2.9790001
-1.2343839 0.37650484 2.9780002
-1.2249906 0.37599915 2.9740002
-1.218483 0.37637842 2.9770002
-1.2107396 0.37637842 2.9770002
-1.2042087 0.37675771 2.9800003
-1.196056 0.37663126 2.9790001
-1.1879086 0.37650484 2.9780002
-1.1797665 0.37637842 2.9770002
-1.1712358 0.37612554 2.9750001
-1.1627154 0.3758727 2.973
-1.1538172 0.37549341 2.97
-1.1449345 0.37511414 2.9670002
-1.1356839 0.3746084 2.9630001
-1.1165565 0.37081555 2.9330001
-1.1070373 0.37018341 2.9280002
-1.0979193 0.36967766 2.924
-1.0809919 0.36651698 2.8990002
-1.072711 0.3662641 2.8970001
-1.0644404 0.36601126 2.8950002
-1.0569104 0.36601126 2.8950002
-1.0486554 0.36575839 2.8930001
-1.0386114 0.36487341 2.8860002
-1.0307477 0.36474699 2.8850002
-1.0235983 0.36487341 2.8860002
-1.0171479 0.3652527 2.8890002
-1.0190693 0.36866626 2.9160001
-1.008016 0.36740199 2.9060001
-1.001146 0.36765483 2.9080002
-0.99460709 0.36803412 2.9110003
-0.98771363 0.36828697 2.9130001
-0.98383796 0.36967766 2.924
-0.97255993 0.36828697 2.9130001
-0.96498317 0.36828697 2.9130001
-0.95740634 0.36828697 2.9130001
-0.94982946 0.36828697 2.9130001
-0.94387007 0.36891913 2.9180002
-0.93916798 0.37005696 2.927
-0.93059987 0.36967766 2.924
-0.92173183 0.36917198 2.9200001
-0.91319764 0.36879268 2.9170001
-0.90436852 0.36828697 2.9130001
-0.88632458 0.3639884 2.8790002
-0.87822568 0.36373553 2.8770001
-0.8692292 0.36310342 2.8720002
-0.86085886 0.36272413 2.8690002
-0.84952962 0.36108056 2.8560002
-0.84534436 0.36247125 2.8670001
-0.83759499 0.36234483 2.8660002
-0.82985079 0.36221841 2.8650002
-0.81177789 0.35754052 2.8280001
-0.80470663 0.35766697 2.8290002
-0.76070803 0.34123123 2.6990001
-0.57926142 0.26979896 2.1340001
-0.54628879 0.25690323 2.0320001
-0.53008759 0.25171965 1.9910001
-0.52359074 0.25108752 1.9860001
-0.51711982 0.25045538 1.9810001
-0.51067501 0.24982323 1.9760001
-0.50451207 0.24931751 1.9720001
-0.49761012 0.24843252 1.9650002
-0.49099529 0.24767394 1.9590001
-0.48242733 0.24590392 1.9450001
-0.47835007 0.24640965 1.9490001
-0.47206649 0.24577752 1.9440001
-0.46604913 0.24527179 1.9400001
-0.46005261 0.24476609 1.9360001
-0.45407686 0.24426036 1.932
-0.44788954 0.24362822 1.927
-0.4414984 0.24286965 1.9210001
-0.43491119 0.24198464 1.914
-0.42813584 0.24097322 1.9060001
-0.42184609 0.24021465 1.9000001
-0.41602641 0.23970893 1.8960001
-0.40480703 0.2360425 1.8670001
-0.39909399 0.23553677 1.863
-0.39340177 0.23503107 1.8590001
-0.38752136 0.23439892 1.8540001
-0.38187337 0.23389322 1.8500001
-0.37400416 0.23199676 1.835
-0.36903009 0.23187035 1.8340001
-0.36425978 0.23187035 1.8340001
-0.35988152 0.2321232 1.8360001
-0.3554928 0.23237605 1.8380001
-0.35147536 0.23288178 1.8420001
-0.34724888 0.23326105 1.845
-0.3454197 0.23528391 1.8610001
-0.34222627 0.23642178 1.8700001
-0.33880562 0.23743321 1.8780001
-0.33498767 0.23819178 1.8840001
-0.33324102 0.2404675 1.9020001
-0.32932949 0.24122608 1.9080001
-0.3253867 0.24198464 1.914
-0.32141274 0.24274321 1.9200001
-0.31658357 0.24286965 1.9210001
-0.31239799 0.2435018 1.9260001
-0.30850559 0.24438679 1.9330001
-0.30426276 0.24501893 1.9380001
-0.29999393 0.24565108 1.9430001
-0.29524371 0.24590392 1.9450001
-0.29048309 0.2461568 1.9470001
-0.53306252 0.52493227 4.1520004
-0.52591074 0.52859867 4.1810002
-0.5257529 0.53959793 4.2680001
-0.51103419 0.53580511 4.2380004
-0.49658948 0.53213865 4.2090001
-0.4889878 0.53580511 4.2380004
-0.4715361 0.52859867 4.1810002
-0.46374619 0.53213865 4.2090001
-0.4527984 0.53213865 4.2090001
-0.44489503 0.53580511 4.2380004
-0.43694308 0.53959793 4.2680001
-0.42584187 0.53959793 4.2680001
-0.42057109 0.54718363 4.3280001
-0.4151774 0.5550223 4.3900003
-0.40660995 0.55894154 4.421
-0.40386915 0.57133156 4.5190001
-0.39211509 0.57133156 4.5190001
-0.3831386 0.57550371 4.552
-0.37407202 0.57980233 4.5860004
-0.36490747 0.58422732 4.6210003
-0.11527097 0.2505818 1.9820001
-0.1117269 0.25424823 2.0110002
-0.10649621 0.25424823 2.0110002
-0.10126552 0.25424823 2.0110002
-0.09603484 0.25424823 2.0110002
-0.090804152 0.25424823 2.0110002
-0.085530907 0.25412178 2.01
-0.08022292 0.25386897 2.0080001
-0.074887991 0.25348967 2.0050001
-0.069533914 0.25298396 2.0010002
-0.06420064 0.25247824 1.9970001
-0.058858633 0.25184608 1.9920001
-0.053138439 0.24931751 1.9720001
-0.047887467 0.24868537 1.9670001
-0.042684246 0.24817964 1.9630001
-0.03746355 0.24742109 1.9570001
-0.032108642 0.24539822 1.9410001
-0.026934559 0.24426036 1.932
-0.021489767 0.23958249 1.8950001
-0.016185014 0.23414606 1.8520001
0.0092773363 0.17080526 1.3510001
0.012706124 0.16966739 1.342
0.016124303 0.16890882 1.3360001
0.019511268 0.16815025 1.33
0.022867022 0.16739169 1.3240001
0.026191561 0.1666331 1.3180001
0.029484887 0.16587453 1.312
0.032772075 0.16524239 1.307
0.036005583 0.16448382 1.3010001
0.039238147 0.16385166 1.296
0.042477585 0.16334596 1.2920001
0.04569621 0.16284025 1.2880001
0.048894025 0.16233452 1.284
0.052071035 0.16182882 1.2800001
0.055313803 0.16157596 1.2780001
0.058500282 0.16119668 1.2750001
0.061671153 0.16081738 1.2720001
0.064877503 0.16056453 1.2700001
0.068127133 0.16043809 1.2690001
0.071427852 0.16043809 1.2690001
0.074728563 0.16043809 1.2690001
0.078029282 0.16043809 1.2690001
0.081329994 0.16043809 1.2690001
0.08463072 0.16043809 1.2690001
0.088000722 0.16056453 1.2700001
0.091375925 0.16069095 1.271
0.094756342 0.16081738 1.2720001
0.09806487 0.16081738 1.2720001
0.10145307 0.16094381 1.273
0.10484649 0.16107024 1.274
0.10833001 0.16132309 1.276
0.11182394 0.16157596 1.2780001
0.11523816 0.16170238 1.279
0.11884299 0.16208167 1.2820001
0.12246343 0.16246095 1.2850001
0.12609948 0.16284025 1.2880001
0.12975112 0.16321953 1.291
0.13341838 0.16359881 1.294
0.13688983 0.16372524 1.2950001
0.14047478 0.1639781 1.2970001
0.14418104 0.16435739 1.3000001
0.14665432 0.16334596 1.2920001
0.15036319 0.16372524 1.2950001
0.15753031 0.16777095 1.327
0.16158845 0.1684031 1.332
0.1656726 0.16903524 1.337
0.16952972 0.16941454 1.34
0.17314425 0.16954097 1.3410001
0.17729081 0.17017311 1.3460001
0.18468703 0.17383955 1.3750001
0.18867421 0.17421882 1.378
0.28280482 0.22668676 1.7930001
0.28907174 0.22795105 1.8030001
0.29164335 0.22630748 1.7900001
0.29580262 0.22592819 1.7870001
0.29994625 0.22554889 1.784
0.30441579 0.22542249 1.7830001
0.30368012 0.22150318 1.7520001
0.30155161 0.2166989 1.7140001
0.30011812 0.21252675 1.6810001
0.28733408 0.19495314 1.5420001
0.28624353 0.19153957 1.5150001
0.28788558 0.19002242 1.503
0.28868872 0.18799958 1.4870001
0.29275316 0.18812598 1.488
0.29582614 0.18762028 1.4840001
0.29887831 0.18711455 1.48
0.30170509 0.18648241 1.475
0.30471307 0.1859767 1.4710001
0.30790994 0.18559742 1.4680001
0.31109121 0.18521813 1.465
0.31425688 0.18483883 1.462
0.31740695 0.18445957 1.4590001
0.32076153 0.18420669 1.457
0.32432851 0.18408027 1.4560001
0.32789025 0.18395384 1.455
0.33144683 0.18382742 1.4540001
0.33522874 0.18382742 1.4540001
0.33901066 0.18382742 1.4540001
0.34232101 0.18357456 1.452
0.34585938 0.18344814 1.4510001
0.34915158 0.18319528 1.4490001
0.35243332 0.18294241 1.447
0.35570472 0.18268955 1.4450001
0.35846817 0.18218385 1.4410001
0.36146218 0.18180455 1.4380001
0.36444056 0.18142527 1.4350001
0.36740336 0.18104598 1.432
0.3706097 0.18079312 1.4300001
0.37380564 0.18054028 1.4280001
0.37699121 0.18028742 1.4260001
0.38043329 0.18016098 1.4250001
0.38360062 0.17990813 1.4230001
0.38675755 0.17965527 1.4210001
0.38990408 0.17940241 1.419
0.39276281 0.17902312 1.416
0.39588591 0.17877026 1.414
0.39871609 0.17839098 1.411
0.40181577 0.17813812 1.409
0.40490508 0.17788526 1.4070001
0.40769362 0.17750597 1.404
0.41046652 0.17712669 1.401
0.41292822 0.17662098 1.3970001
0.41536915 0.17611526 1.393
0.41778928 0.17560954 1.3890001
0.41988519 0.17497741 1.3840001
0.4216491 0.17421882 1.378
0.42369038 0.17358668 1.373
0.42570567 0.17295454 1.368
0.42769495 0.17232239 1.363
0.42997462 0.17181669 1.3590001
0.43223342 0.17131096 1.355
0.43479311 0.17093168 1.3520001
0.43766129 0.17067882 1.35
0.44019231 0.17029954 1.3470001
0.44369593 0.17029954 1.3470001
0.44686753 0.17017311 1.3460001
0.45036849 0.17017311 1.3460001
0.45386949 0.17017311 1.3460001
0.45737052 0.17017311 1.3460001
0.46052906 0.17004667 1.345
0.46437249 0.17017311 1.3460001
0.46787348 0.17017311 1.3460001
0.47137448 0.17017311 1.3460001
0.47522828 0.17029954 1.3470001
0.4787319 0.17029954 1.3470001
0.48223549 0.17029954 1.3470001
0.76164955 0.2651211 2.0970001
0.76820129 0.2655004 2.1000001
0.77403188 0.26562682 2.1010001
0.7824648 0.26663828 2.1090002
0.7894448 0.26714396 2.1130002
0.79494083 0.26714396 2.1130002
0.80195206 0.26764968 2.1170001
0.80783987 0.2677761 2.118
0.81373292 0.26790255 2.1190002
0.81963116 0.26802897 2.1200001
0.82436681 0.2677761 2.118
0.82948405 0.26764968 2.1170001
0.83459604 0.26752326 2.1160002
0.83890879 0.26714396 2.1130002
0.84360546 0.26689109 2.1110001
0.8478896 0.26651183 2.108
0.85215807 0.26613253 2.105
0.85600358 0.26562682 2.1010001
0.85982823 0.2651211 2.0970001
0.86363214 0.26461542 2.0930002
0.86741513 0.26410967 2.089
0.86198515 0.26082253 2.0630002
0.86566931 0.26031682 2.059
0.8672176 0.25917897 2.0500002
0.85935497 0.25525966 2.0190001
0.86803246 0.25627109 2.0270002
0.86770386 0.25462753 2.0140002
0.87164205 0.25424823 2.0110002
0.86946011 0.25209895 1.9940001
0.87420791 0.25197253 1.9930001
0.86747825 0.24855894 1.9660001
0.87259191 0.24855894 1.9660001
0.874134 0.24754751 1.9580001
0.87743068 0.24704179 1.9540001
0.88070655 0.24653608 1.95
0.88350731 0.24590392 1.9450001
0.8821705 0.24413393 1.9310001
0.88489586 0.2435018 1.9260001
0.88805723 0.24299607 1.9220001
0.89119786 0.24249037 1.9180001
0.89431763 0.24198464 1.914
0.89600706 0.24109964 1.9070001
0.89766008 0.24021465 1.9000001
0.89880157 0.23920321 1.8920001
0.90085685 0.23844463 1.886
0.90528214 0.23831822 1.8850001
0.9106679 0.23844463 1.886
0.91654444 0.2386975 1.8880001
0.91999102 0.23831822 1.8850001
0.94206703 0.24274321 1.9200001
0.9505139 0.24362822 1.927
0.96494746 0.24603036 1.9460001
0.98546141 0.24994966 1.9770001
1.000625 0.25247824 1.9970001
1.0259659 0.2575354 2.0370002
1.0282265 0.25677681 2.0310001
1.0355446 0.25728253 2.0350001
1.0607851 0.26221326 2.0740001
-1.5000851 0.36773494 2.8500001
-1.494767 0.36825106 2.8540001
-1.4894282 0.36876717 2.858
-1.4840686 0.36928332 2.8620002
-1.480752 0.37031552 2.8700001
-1.4743137 0.37057361 2.8720002
-1.4673543 0.37070262 2.8730001
-1.4608977 0.37096068 2.8750002
-1.4544308 0.37121874 2.8770001
-1.4484564 0.37160581 2.8800001
-1.4439675 0.37238002 2.8860002
-1.4339721 0.37173486 2.881
-1.427964 0.37212193 2.8840001
-1.4214478 0.37238002 2.8860002
-1.429619 0.37650898 2.9180002
-1.4293389 0.3784444 2.9330001
-1.422195 0.37857345 2.9340003
-1.4478304 0.3874765 3.0030003
-1.4404989 0.38760552 3.0040002
-1.4579625 0.39444411 3.0570002
-1.4647151 0.39844403 3.0880001
