# .PCD v0.7 - Point Cloud Data file format
VERSION 0.7
FIELDS x y z
SIZE 4 4 4
TYPE F F F
COUNT 1 1 1
WIDTH 1486
HEIGHT 1
VIEWPOINT 0 0 0 1 0 0 0
POINTS 1486
DATA ascii
0.36957464 -0.53012723 1.5050001
0.37448096 -0.53153622 1.5090001
0.37965885 -0.53329742 1.5140001
0.38486278 -0.53505862 1.5190001
0.3900927 -0.53681988 1.524
0.39534861 -0.53858107 1.529
0.40063053 -0.54034227 1.534
0.40541095 -0.54139906 1.5370001
0.41047332 -0.54280806 1.5410001
0.41582546 -0.54456925 1.5460001
0.66037565 -0.8249554 2.342
0.65992063 -0.80945671 2.2980001
0.66676581 -0.81051344 2.3010001
0.6736266 -0.81157023 2.3040001
0.68020791 -0.81227463 2.306
0.68679976 -0.81297916 2.3080001
0.69310176 -0.81333137 2.309
0.70031732 -0.81474042 2.3130002
0.70724833 -0.81579715 2.3160002
0.71388692 -0.81650162 2.3180001
0.72053587 -0.81720614 2.3200002
0.72719526 -0.81791055 2.322
0.73354936 -0.81826288 2.3230002
0.73990852 -0.81861508 2.3240001
0.74916178 -0.82213753 2.3340001
0.75490767 -0.82178527 2.3330002
0.75738645 -0.81791055 2.322
0.76572615 -0.82037628 2.329
0.77111989 -0.81967181 2.3270001
0.77616918 -0.81861508 2.3240001
0.78120291 -0.81755835 2.3210001
0.78622097 -0.81650162 2.3180001
0.79088175 -0.81509262 2.3140001
0.79586607 -0.81403589 2.3110001
0.80083472 -0.81297916 2.3080001
0.81068194 -0.81685382 2.319
0.81776899 -0.81791055 2.322
0.82487154 -0.81896728 2.325
0.83198977 -0.82002401 2.3280001
0.83912361 -0.82108074 2.3310001
0.84591043 -0.82178527 2.3330002
0.85270762 -0.82248974 2.335
0.85951531 -0.82319427 2.3370001
0.86596286 -0.82354647 2.3380001
0.87204272 -0.82354647 2.3380001
0.87737149 -0.82284206 2.3360002
0.88231152 -0.82178527 2.3330002
0.88495129 -0.81861508 2.3240001
0.88984454 -0.81755835 2.3210001
0.89626616 -0.81791055 2.322
0.90269309 -0.81826288 2.3230002
0.90443075 -0.8143881 2.312
0.90847409 -0.81262696 2.3070002
0.91249138 -0.8108657 2.302
0.91608357 -0.80875218 2.296
0.92044789 -0.80734324 2.2920001
0.92519557 -0.80628651 2.289
0.93033445 -0.80558205 2.2870002
0.93505353 -0.80452532 2.2840002
0.9405809 -0.80417305 2.283
0.945274 -0.80311638 2.2800002
0.95120305 -0.80311638 2.2800002
0.9571321 -0.80311638 2.2800002
0.96390581 -0.80382079 2.2820001
0.96814013 -0.80241185 2.2780001
0.9749192 -0.80311638 2.2800002
0.98170847 -0.80382079 2.2820001
0.98894113 -0.80487752 2.2850001
0.99967247 -0.80875218 2.296
1.0100231 -0.81227463 2.306
1.0155792 -0.81192243 2.3050001
1.0273348 -0.81650162 2.3180001
1.0240009 -0.8091045 2.2970002
1.0290773 -0.80839998 2.2950001
1.0418104 -0.81368369 2.3100002
1.046003 -0.81227463 2.306
1.0501748 -0.8108657 2.302
1.0538671 -0.8091045 2.2970002
1.0584561 -0.80804777 2.2940001
1.0625656 -0.80663878 2.2900002
1.0587219 -0.7992416 2.2690001
1.0632147 -0.79818487 2.266
1.0681638 -0.79748046 2.2640002
1.0721534 -0.79607141 2.26
1.0775535 -0.79571921 2.2590001
1.0819892 -0.79466248 2.256
1.0873735 -0.79431021 2.2550001
-0.86305171 -0.54334605 1.554
-0.86122179 -0.54474467 1.5580001
-0.85937095 -0.54614323 1.562
-0.8574993 -0.5475418 1.5660001
-0.85560691 -0.54894036 1.5700001
-0.85260898 -0.54963964 1.572
-0.84852099 -0.54963964 1.572
-0.84497029 -0.54998928 1.5730001
-0.83927613 -0.54894036 1.5700001
-0.83519334 -0.54894036 1.5700001
-0.83375752 -0.55068856 1.575
-0.82439417 -0.54719216 1.5650001
-0.81980026 -0.54684252 1.5640001
-0.81521159 -0.54649287 1.5630001
-0.81062812 -0.54614323 1.562
-0.80604982 -0.54579359 1.5610001
-0.80250424 -0.54614323 1.562
-0.79895359 -0.54649287 1.5630001
-0.79590613 -0.54719216 1.5650001
-0.79284835 -0.54789144 1.567
-0.79078698 -0.54929 1.5710001
-0.78870463 -0.55068856 1.575
-0.78759801 -0.55278647 1.5810001
-0.78596449 -0.55453467 1.5860001
-0.78430498 -0.55628288 1.5910001
-0.78261948 -0.55803108 1.5960001
-0.78090793 -0.55977929 1.6010001
-0.77868527 -0.56117785 1.605
-0.77595925 -0.56222683 1.608
-0.77753729 -0.56642258 1.6200001
-0.77284718 -0.56607288 1.6190001
-0.76816225 -0.56572324 1.618
-0.76537126 -0.56677216 1.6210001
-0.7611559 -0.56677216 1.6210001
-0.75694054 -0.56677216 1.6210001
-0.75226092 -0.56642258 1.6200001
-0.74758643 -0.56607288 1.6190001
-0.74291706 -0.56572324 1.618
-0.73825306 -0.5653736 1.6170001
-0.73268622 -0.56432468 1.6140001
-0.72803771 -0.56397504 1.613
-0.72294569 -0.56327575 1.6110001
-0.71697176 -0.56187719 1.6070001
-0.71146214 -0.56082827 1.6040001
-0.7059682 -0.55977929 1.6010001
-0.70092815 -0.55908006 1.5990001
-0.69502699 -0.55768144 1.595
-0.6891467 -0.55628288 1.5910001
-0.68285662 -0.55453467 1.5860001
-0.67702043 -0.55313605 1.582
-0.66907841 -0.54998928 1.5730001
-0.66329688 -0.54859072 1.5690001
-0.65753615 -0.54719216 1.5650001
-0.65096116 -0.54509425 1.559
-0.64483225 -0.54334605 1.554
-0.6395542 -0.54229712 1.5510001
-0.63429165 -0.5412482 1.5480001
-0.62823039 -0.5395 1.5430001
-0.62300426 -0.53845108 1.5400001
-0.61739171 -0.53705245 1.536
-0.61219943 -0.53600359 1.5330001
-0.60741943 -0.53530425 1.531
-0.60264981 -0.53460497 1.529
-0.59828222 -0.53425533 1.5280001
-0.59353083 -0.53355604 1.526
-0.58917618 -0.5332064 1.5250001
-0.58482677 -0.53285676 1.524
-0.58048254 -0.53250712 1.5230001
-0.5769006 -0.53285676 1.524
-0.57293749 -0.53285676 1.524
-0.5693478 -0.5332064 1.5250001
-0.56538206 -0.5332064 1.5250001
-0.56178451 -0.53355604 1.526
-0.55854732 -0.53425533 1.5280001
-0.55566263 -0.53530425 1.531
-0.55312276 -0.53670287 1.5350001
-0.55056196 -0.53810138 1.539
-0.54798049 -0.5395 1.5430001
-0.54573071 -0.5412482 1.5480001
-0.54345489 -0.54299641 1.5530001
-0.54115301 -0.54474467 1.5580001
-0.53848052 -0.54614323 1.562
-0.53612924 -0.54789144 1.567
-0.53341252 -0.54929 1.5710001
-0.53033805 -0.55033898 1.5740001
-0.52691358 -0.55103821 1.5760001
-0.52314699 -0.55138785 1.577
-0.51904607 -0.55138785 1.577
-0.51461864 -0.55103821 1.5760001
-0.50987244 -0.55033898 1.5740001
-0.50545806 -0.54998928 1.5730001
-0.50073004 -0.54929 1.5710001
-0.49601248 -0.54859072 1.5690001
-0.4909918 -0.5475418 1.5660001
-0.48598668 -0.54649287 1.5630001
-0.48099717 -0.54544395 1.5600001
-0.47663471 -0.54509425 1.559
-0.47045869 -0.54264677 1.552
-0.46822602 -0.54474467 1.5580001
-0.46387658 -0.54439497 1.557
-0.45953235 -0.54404539 1.5560001
-0.45548606 -0.54404539 1.5560001
-0.45172986 -0.54439497 1.557
-0.44739342 -0.54404539 1.5560001
-0.44363207 -0.54439497 1.557
-0.43958315 -0.54439497 1.557
-0.43553424 -0.54439497 1.557
-0.43176249 -0.54474467 1.5580001
-0.42771098 -0.54474467 1.5580001
-0.42365944 -0.54474467 1.5580001
-0.41933864 -0.54439497 1.557
-0.41502303 -0.54404539 1.5560001
-0.41044843 -0.54334605 1.554
-0.40562281 -0.54229712 1.5510001
-0.40081272 -0.5412482 1.5480001
-0.39576197 -0.53984964 1.544
-0.39301544 -0.54159784 1.549
-0.38798288 -0.54019928 1.5450001
-0.38297111 -0.53880072 1.5410001
-0.37478313 -0.53285676 1.524
-0.36984679 -0.5314582 1.5200001
-0.3649312 -0.53005958 1.516
-0.36027458 -0.52901071 1.5130001
-0.35563356 -0.52796179 1.5100001
-0.35124099 -0.52726245 1.508
-0.34685889 -0.52656317 1.506
-0.34225947 -0.52551425 1.503
-0.33790073 -0.52481496 1.501
-0.33377495 -0.52446532 1.5000001
-0.32965437 -0.52411568 1.4990001
-0.32575631 -0.52411568 1.4990001
-0.32164347 -0.52376604 1.498
-0.31774801 -0.52376604 1.498
-0.31385255 -0.52376604 1.498
-0.30995706 -0.52376604 1.498
-0.3060616 -0.52376604 1.498
-0.3021661 -0.52376604 1.498
-0.29827061 -0.52376604 1.498
-0.29417866 -0.5234164 1.4970001
-0.2902858 -0.5234164 1.4970001
-0.2860103 -0.52271712 1.4950001
-0.28155649 -0.5216682 1.4920001
-0.27674606 -0.51991999 1.4870001
-0.27232867 -0.51887101 1.4840001
-0.26756504 -0.51712281 1.4790001
-0.26300573 -0.51572424 1.475
-0.25811583 -0.5136264 1.4690001
-0.25343022 -0.51187819 1.4640001
-0.24860011 -0.50978029 1.4580001
-0.24346539 -0.50698316 1.45
-0.238207 -0.50383633 1.4410001
-0.23348349 -0.50173849 1.4350001
-0.22879121 -0.49964061 1.429
-0.22413015 -0.49754277 1.4230001
-0.21950026 -0.49544489 1.4170001
-0.21520621 -0.49404633 1.4130001
-0.21093296 -0.49264774 1.409
-0.20712182 -0.49229813 1.4080001
-0.20346038 -0.49229813 1.4080001
-0.20008275 -0.49299741 1.4100001
-0.19669473 -0.49369669 1.4120001
-0.19343299 -0.49474561 1.4150001
-0.19015566 -0.49579456 1.4180001
-0.18699422 -0.49719313 1.4220001
-0.18394087 -0.49894133 1.427
-0.18073525 -0.50033993 1.4310001
-0.17750879 -0.50173849 1.4350001
-0.17292945 -0.499291 1.4280001
-0.17028248 -0.50243777 1.437
-0.16631384 -0.50173849 1.4350001
-0.1625822 -0.50173849 1.4350001
-0.15807568 -0.499291 1.4280001
-0.15468653 -0.50033993 1.4310001
-0.1530752 -0.5073328 1.4510001
-0.15033092 -0.51082921 1.4610001
-0.14582957 -0.50838172 1.4540001
-0.14302547 -0.51187819 1.4640001
-0.13874294 -0.51012993 1.4590001
-0.13689125 -0.51747245 1.48
-0.13340217 -0.51887101 1.4840001
-0.12980497 -0.51991999 1.4870001
-0.12576871 -0.51922065 1.485
-0.12198914 -0.51957029 1.4860001
-0.11836334 -0.52061921 1.4890001
-0.11502951 -0.52306676 1.4960001
-0.11039633 -0.51957029 1.4860001
-0.10660375 -0.51991999 1.4870001
-0.10280597 -0.52026957 1.488
-0.099335432 -0.52236748 1.4940001
-0.095258698 -0.5213185 1.4910001
-0.091381423 -0.5213185 1.4910001
-0.087621525 -0.52201778 1.493
-0.083851233 -0.52271712 1.4950001
-0.080017038 -0.52306676 1.4960001
-0.076482974 -0.52551425 1.503
-0.072671071 -0.52621353 1.5050001
-0.068848766 -0.52691281 1.5070001
-0.065016054 -0.52761209 1.5090001
-0.061213426 -0.52866107 1.5120001
-0.057357315 -0.52936029 1.5140001
-0.05345552 -0.52970999 1.5150001
-0.049548518 -0.53005958 1.516
-0.045606233 -0.53005958 1.516
-0.041554023 -0.52866107 1.5120001
-0.037622139 -0.52866107 1.5120001
-0.033690259 -0.52866107 1.5120001
-0.029758373 -0.52866107 1.5120001
-0.025843576 -0.52901071 1.5130001
-0.021894611 -0.52866107 1.5120001
-0.01796273 -0.52866107 1.5120001
-0.014021568 -0.52831137 1.511
-0.010032174 -0.5251646 1.5020001
-0.0061262962 -0.5251646 1.5020001
-0.0022174623 -0.52446532 1.5000001
0.0016798478 -0.5234164 1.4970001
0.0055615553 -0.52236748 1.4940001
0.0094276601 -0.5213185 1.4910001
0.013278161 -0.52026957 1.488
0.01711306 -0.51922065 1.485
0.020932358 -0.51817173 1.4820001
0.024752773 -0.51747245 1.48
0.028543469 -0.51642352 1.4770001
0.032340482 -0.51572424 1.475
0.036127094 -0.51502496 1.473
0.039876178 -0.51397598 1.47
0.043669116 -0.5136264 1.4690001
0.047456846 -0.5132767 1.4680001
0.051239386 -0.51292711 1.4670001
0.055016719 -0.51257741 1.4660001
0.05882898 -0.51257741 1.4660001
0.062641241 -0.51257741 1.4660001
0.066498831 -0.51292711 1.4670001
0.070409559 -0.5136264 1.4690001
0.07433068 -0.51432568 1.4710001
0.078262202 -0.51502496 1.473
0.082259856 -0.51607388 1.4760001
0.086331449 -0.51747245 1.48
0.090484783 -0.51922065 1.485
0.094600588 -0.52061921 1.4890001
0.09873718 -0.52201778 1.493
0.1028946 -0.5234164 1.4970001
0.10707282 -0.52481496 1.501
0.11119789 -0.52586389 1.5040001
0.11533858 -0.52691281 1.5070001
0.11941573 -0.52761209 1.5090001
0.12399369 -0.53040928 1.5170001
0.12793858 -0.53040928 1.5170001
0.13188346 -0.53040928 1.5170001
0.1357388 -0.53005958 1.516
0.13958897 -0.52970999 1.5150001
0.14333917 -0.52901071 1.5130001
0.14707898 -0.52831137 1.511
0.15090831 -0.52796179 1.5100001
0.15473245 -0.52761209 1.5090001
0.15855139 -0.52726245 1.508
0.16258061 -0.52761209 1.5090001
0.1665047 -0.52761209 1.5090001
0.17054172 -0.52796179 1.5100001
0.17458394 -0.52831137 1.511
0.17874952 -0.52901071 1.5130001
0.18304621 -0.53005958 1.516
0.18723519 -0.53075892 1.5180001
0.19156049 -0.53180784 1.521
0.19577287 -0.53250712 1.5230001
0.2001268 -0.53355604 1.526
0.20436259 -0.53425533 1.5280001
0.20860875 -0.53495461 1.5300001
0.21286534 -0.53565389 1.5320001
0.21727388 -0.53670287 1.5350001
0.22126555 -0.53670287 1.5350001
0.22540399 -0.53705245 1.536
0.22924896 -0.53670287 1.5350001
0.23308869 -0.53635317 1.534
0.23692323 -0.53600359 1.5330001
0.24043828 -0.53495461 1.5300001
0.24393772 -0.53390568 1.5270001
0.24742155 -0.53285676 1.524
0.25072485 -0.5314582 1.5200001
0.25417489 -0.53040928 1.5170001
0.257269 -0.52866107 1.5120001
0.26068264 -0.52761209 1.5090001
0.26408064 -0.52656317 1.506
0.26746306 -0.52551425 1.503
0.27082989 -0.52446532 1.5000001
0.27436426 -0.52376604 1.498
0.27807397 -0.5234164 1.4970001
0.28177848 -0.52306676 1.4960001
0.28547785 -0.52271712 1.4950001
0.28917193 -0.52236748 1.4940001
0.29305699 -0.52236748 1.4940001
0.29694209 -0.52236748 1.4940001
0.30082718 -0.52236748 1.4940001
0.30471224 -0.52236748 1.4940001
0.30839074 -0.52201778 1.493
0.3122732 -0.52201778 1.493
0.31615567 -0.52201778 1.493
0.32003814 -0.52201778 1.493
0.32392064 -0.52201778 1.493
0.32780311 -0.52201778 1.493
0.33168557 -0.52201778 1.493
0.33579284 -0.52236748 1.4940001
0.33990526 -0.52271712 1.4950001
0.34402287 -0.52306676 1.4960001
0.34814572 -0.5234164 1.4970001
0.35227376 -0.52376604 1.498
0.35664478 -0.52446532 1.5000001
0.36102617 -0.5251646 1.5020001
0.36566097 -0.52621353 1.5050001
0.37006575 -0.52691281 1.5070001
0.37522545 -0.52866107 1.5120001
0.38041115 -0.53040928 1.5170001
0.38562289 -0.53215748 1.5220001
0.39111659 -0.53425533 1.5280001
0.39638287 -0.53600359 1.5330001
0.40167522 -0.53775179 1.5380001
0.40672979 -0.53915036 1.5420001
0.41180515 -0.54054892 1.5460001
0.41717032 -0.54229712 1.5510001
0.65905911 -0.80243194 2.2950001
0.66589648 -0.80348086 2.2980001
0.67274946 -0.80452979 2.3010001
0.67932308 -0.80522913 2.3030002
0.68560946 -0.80557871 2.3040001
0.69220126 -0.80627799 2.306
0.69910616 -0.80732691 2.309
0.70572138 -0.80802625 2.3110001
0.71265501 -0.80907518 2.3140001
0.71929359 -0.80977452 2.3160002
0.72594255 -0.81047374 2.3180001
0.73228616 -0.81082332 2.319
0.73895335 -0.81152266 2.3210001
0.74498904 -0.81152266 2.3210001
0.75102472 -0.81152266 2.3210001
0.75934356 -0.81397015 2.3280001
0.76539743 -0.81397015 2.3280001
0.77078849 -0.81327093 2.3260002
0.77616918 -0.81257159 2.3240001
0.78120291 -0.81152266 2.3210001
0.78656012 -0.81082332 2.319
0.79156536 -0.80977452 2.3160002
0.79655486 -0.80872554 2.3130002
0.80152869 -0.80767661 2.3100002
0.81173068 -0.8118723 2.322
0.81882554 -0.81292123 2.325
0.82629067 -0.81431979 2.329
0.83341926 -0.81536871 2.332
0.84092355 -0.81676733 2.3360002
0.84772331 -0.81746662 2.3380001
0.85453355 -0.8181659 2.3400002
0.86135417 -0.81886512 2.342
0.86781484 -0.81921482 2.3430002
0.87390769 -0.81921482 2.3430002
0.87924939 -0.81851554 2.3410001
0.88420242 -0.81746662 2.3380001
0.88457054 -0.812222 2.3230002
0.89099467 -0.81257159 2.3240001
0.89781016 -0.81327093 2.3260002
0.90385884 -0.81327093 2.3260002
0.90990746 -0.81327093 2.3260002
0.91004926 -0.80802625 2.3110001
0.91447335 -0.80662769 2.3070002
0.91728055 -0.8038305 2.299
0.92205423 -0.80278152 2.296
0.92681241 -0.80173266 2.2930002
0.9319616 -0.80103338 2.2910001
0.93669105 -0.79998446 2.2880001
0.9426409 -0.79998446 2.2880001
0.9461031 -0.79788655 2.2820001
0.95203739 -0.79788655 2.2820001
0.95839137 -0.79823619 2.283
0.96559536 -0.79928511 2.286
0.97749001 -0.8041802 2.3000002
0.98945743 -0.80907518 2.3140001
0.99633527 -0.80977452 2.3160002
1.0027907 -0.8101241 2.3170002
1.0066389 -0.80837584 2.312
1.0113372 -0.80732691 2.309
1.0164604 -0.80662769 2.3070002
1.0286644 -0.81152266 2.3210001
1.0413871 -0.81676733 2.3360002
1.0465649 -0.81606805 2.3340001
1.0436144 -0.80907518 2.3140001
1.0473638 -0.80732691 2.309
1.0515435 -0.80592835 2.3050001
1.0552435 -0.8041802 2.3000002
1.0612246 -0.8041802 2.3000002
1.0658135 -0.80313122 2.2970002
1.0731866 -0.8041802 2.3000002
1.0646223 -0.79334116 2.2690001
1.0695792 -0.79264194 2.2670002
1.0740511 -0.79159302 2.2640002
1.0794616 -0.79124331 2.263
1.0843872 -0.79054409 2.2610002
1.0893023 -0.78984475 2.2590001
-0.86527324 -0.54069316 1.5580001
-0.86288011 -0.54173434 1.5610001
-0.86157167 -0.54346955 1.5660001
-0.85859448 -0.54416358 1.5680001
-0.85669684 -0.54555178 1.572
-0.85369378 -0.54624587 1.5740001
-0.84960061 -0.54624587 1.5740001
-0.84604466 -0.54659289 1.575
-0.84194899 -0.54659289 1.575
-0.83838516 -0.54693997 1.5760001
-0.8289932 -0.54346955 1.5660001
-0.82439417 -0.54312247 1.5650001
-0.81980026 -0.54277545 1.5640001
-0.81521159 -0.54242837 1.5630001
-0.81062812 -0.54208136 1.562
-0.80604982 -0.54173434 1.5610001
-0.80250424 -0.54208136 1.562
-0.79946476 -0.54277545 1.5640001
-0.79641473 -0.54346955 1.5660001
-0.79386038 -0.54451066 1.5690001
-0.7917937 -0.5458988 1.5730001
-0.79020697 -0.54763401 1.5780001
-0.78909248 -0.54971629 1.5840001
-0.78745115 -0.5514515 1.5890001
-0.78627682 -0.55353373 1.595
-0.78458089 -0.55526894 1.6
-0.78285897 -0.55700415 1.605
-0.780626 -0.55839235 1.6090001
-0.78319764 -0.56325096 1.623
-0.77945709 -0.56359804 1.6240001
-0.77475661 -0.56325096 1.623
-0.77148563 -0.56394506 1.6250001
-0.76725996 -0.56394506 1.6250001
-0.76303416 -0.56394506 1.6250001
-0.75880843 -0.56394506 1.6250001
-0.75411832 -0.56359804 1.6240001
-0.74989522 -0.56359804 1.6240001
-0.74521285 -0.56325096 1.623
-0.74007928 -0.56255686 1.6210001
-0.73495603 -0.56186283 1.6190001
-0.7298432 -0.56116873 1.6170001
-0.72429198 -0.56012762 1.6140001
-0.71875638 -0.55908644 1.6110001
-0.71323633 -0.55804533 1.608
-0.70773196 -0.55700415 1.605
-0.70224321 -0.5559631 1.6020001
-0.69633424 -0.55457491 1.598
-0.6904462 -0.55318671 1.5940001
-0.68414825 -0.5514515 1.5890001
-0.67616457 -0.5483281 1.58
-0.67035449 -0.54693997 1.5760001
-0.66329688 -0.54451066 1.5690001
-0.65753615 -0.54312247 1.5650001
-0.65137869 -0.54138726 1.5600001
-0.64192766 -0.53687567 1.5470001
-0.64037889 -0.53895795 1.5530001
-0.63470137 -0.53756976 1.549
-0.62904465 -0.53618163 1.5450001
-0.62381333 -0.53514045 1.5420001
-0.61859757 -0.53409934 1.539
-0.61339742 -0.53305823 1.536
-0.60860968 -0.53236413 1.534
-0.60343814 -0.53132302 1.531
-0.5990653 -0.530976 1.5300001
-0.59430873 -0.5302819 1.5280001
-0.58994889 -0.52993482 1.5270001
-0.58559424 -0.52958775 1.526
-0.58124483 -0.52924073 1.5250001
-0.57765764 -0.52958775 1.526
-0.57368934 -0.52958775 1.526
-0.57009447 -0.52993482 1.5270001
-0.56612355 -0.52993482 1.5270001
-0.5625208 -0.5302819 1.5280001
-0.55927843 -0.530976 1.5300001
-0.55638856 -0.53201711 1.5330001
-0.55384344 -0.53340524 1.5370001
-0.55091977 -0.53444642 1.5400001
-0.54869074 -0.53618163 1.5450001
-0.54643577 -0.53791684 1.5500001
-0.54415476 -0.53965205 1.5550001
-0.54184771 -0.54138726 1.5600001
-0.53951472 -0.54312247 1.5650001
-0.53715569 -0.54485768 1.5700001
-0.53409159 -0.5458988 1.5730001
-0.53101194 -0.54693997 1.5760001
-0.52758223 -0.54763401 1.5780001
-0.52414221 -0.5483281 1.58
-0.52069175 -0.5490222 1.582
-0.51592475 -0.5483281 1.58
-0.51149213 -0.54798108 1.5790001
-0.50674337 -0.54728699 1.577
-0.50200498 -0.54659289 1.575
-0.49696085 -0.54555178 1.572
-0.49224591 -0.54485768 1.5700001
-0.48723039 -0.54381657 1.567
-0.48223054 -0.54277545 1.5640001
-0.47755194 -0.54208136 1.562
-0.4713681 -0.53965205 1.5550001
-0.46912763 -0.54173434 1.5610001
-0.46477035 -0.54138726 1.5600001
-0.46041828 -0.54104018 1.559
-0.45607153 -0.54069316 1.5580001
-0.45201999 -0.54069316 1.5580001
-0.44796848 -0.54069316 1.5580001
-0.44391701 -0.54069316 1.5580001
-0.4398655 -0.54069316 1.5580001
-0.43581396 -0.54069316 1.5580001
-0.43176249 -0.54069316 1.5580001
-0.42771098 -0.54069316 1.5580001
-0.42365944 -0.54069316 1.5580001
-0.419608 -0.54069316 1.5580001
-0.41502303 -0.53999913 1.5560001
-0.41071257 -0.53965205 1.5550001
-0.40614587 -0.53895795 1.5530001
-0.40107164 -0.53756976 1.549
-0.3960183 -0.53618163 1.5450001
-0.39073196 -0.53444642 1.5400001
-0.38823399 -0.53652865 1.5460001
-0.3832196 -0.53514045 1.5420001
-0.37527499 -0.52958775 1.526
-0.37033343 -0.52819961 1.5220001
-0.36541265 -0.52681148 1.5180001
-0.36075082 -0.52577031 1.5150001
-0.35610458 -0.52472919 1.5120001
-0.35170686 -0.5240351 1.5100001
-0.34731951 -0.523341 1.508
-0.34294263 -0.5226469 1.506
-0.33857608 -0.52195287 1.5040001
-0.33466503 -0.52195287 1.5040001
-0.33053401 -0.52160579 1.503
-0.32640824 -0.52125877 1.5020001
-0.32250234 -0.52125877 1.5020001
-0.31859648 -0.52125877 1.5020001
-0.31469062 -0.52125877 1.5020001
-0.31078473 -0.52125877 1.5020001
-0.30708316 -0.52160579 1.503
-0.30317467 -0.52160579 1.503
-0.29906708 -0.52125877 1.5020001
-0.2949647 -0.52091169 1.501
-0.29106143 -0.52091169 1.501
-0.28677553 -0.52021766 1.4990001
-0.28250003 -0.51952356 1.4970001
-0.27823496 -0.51882946 1.4950001
-0.27306271 -0.51640016 1.488
-0.26846957 -0.51501197 1.4840001
-0.26389727 -0.51362377 1.48
-0.25881866 -0.51119453 1.473
-0.25412264 -0.50945926 1.4680001
-0.24928212 -0.50737703 1.462
-0.24396913 -0.50425363 1.4530001
-0.2406866 -0.5052948 1.4560001
-0.23592408 -0.50321251 1.45
-0.2310327 -0.50078321 1.4430001
-0.22633521 -0.49870095 1.437
-0.22182383 -0.49696574 1.432
-0.21535851 -0.49071896 1.414
-0.21123236 -0.48967782 1.411
-0.20726891 -0.48898375 1.409
-0.20374939 -0.4893308 1.4100001
-0.20008275 -0.4893308 1.4100001
-0.19683404 -0.49037194 1.4130001
-0.19356968 -0.49141303 1.416
-0.19042386 -0.49280122 1.4200001
-0.18712573 -0.49384236 1.4230001
-0.18445648 -0.49661872 1.4310001
-0.18187194 -0.49974209 1.4400001
-0.17713767 -0.49696574 1.432
-0.17329276 -0.49661872 1.4310001
-0.17075649 -0.50008917 1.4410001
-0.16608205 -0.49731278 1.4330001
-0.16428167 -0.50321251 1.45
-0.1609538 -0.5046007 1.4540001
-0.15749703 -0.50564182 1.457
-0.15318069 -0.50390661 1.452
-0.15156566 -0.51119453 1.473
-0.14883845 -0.51501197 1.4840001
-0.14517476 -0.51570606 1.4860001
-0.1414056 -0.51605314 1.4870001
-0.13735372 -0.51535898 1.485
-0.13394153 -0.51709425 1.4900001
-0.13024144 -0.51778835 1.4920001
-0.12636156 -0.51778835 1.4920001
-0.12223542 -0.51674718 1.4890001
-0.11844284 -0.51709425 1.4900001
-0.11472195 -0.51778835 1.4920001
-0.11091636 -0.51813537 1.493
-0.10703389 -0.51813537 1.493
-0.10322051 -0.51848239 1.4940001
-0.099601388 -0.51987058 1.498
-0.095642038 -0.51952356 1.4970001
-0.092178173 -0.52195287 1.5040001
-0.087914966 -0.51987058 1.498
-0.084131673 -0.52056468 1.5000001
-0.080284476 -0.52091169 1.501
-0.076788291 -0.52368808 1.5090001
-0.072960787 -0.52438211 1.511
-0.069077194 -0.52472919 1.5120001
-0.065231487 -0.52542329 1.5140001
-0.061334886 -0.52577031 1.5150001
-0.05747097 -0.5264644 1.5170001
-0.053561375 -0.52681148 1.5180001
-0.049613889 -0.52681148 1.5180001
-0.045756649 -0.52785254 1.521
-0.041608986 -0.52542329 1.5140001
-0.037671901 -0.52542329 1.5140001
-0.033734821 -0.52542329 1.5140001
-0.029797737 -0.52542329 1.5140001
-0.025894817 -0.52611732 1.516
-0.021938052 -0.52577031 1.5150001
-0.017998369 -0.52577031 1.5150001
-0.014105085 -0.52750552 1.5200001
-0.01006557 -0.52299398 1.5070001
-0.0061466899 -0.52299398 1.5070001
-0.0022248537 -0.52229989 1.5050001
0.0016865806 -0.52160579 1.503
0.0055838907 -0.52056468 1.5000001
0.0094655985 -0.51952356 1.4970001
0.013331703 -0.51848239 1.4940001
0.017182205 -0.51744127 1.4910001
0.02100298 -0.51605314 1.4870001
0.024836399 -0.51535898 1.485
0.028640095 -0.51431793 1.4820001
0.03245011 -0.51362377 1.48
0.0362252 -0.51258272 1.4770001
0.039984688 -0.51154155 1.4740001
0.043788023 -0.51119453 1.473
0.04755383 -0.51050043 1.4710001
0.051344167 -0.51015335 1.47
0.055091776 -0.50945926 1.4680001
0.058909234 -0.50945926 1.4680001
0.06268397 -0.50911224 1.4670001
0.06654416 -0.50945926 1.4680001
0.070409559 -0.50980633 1.4690001
0.07433068 -0.51050043 1.4710001
0.078209072 -0.51084751 1.4720001
0.082204126 -0.51188856 1.475
0.086273119 -0.51327676 1.4790001
0.090362921 -0.51466495 1.483
0.094473526 -0.51605314 1.4870001
0.098604918 -0.51744127 1.4910001
0.10275713 -0.51882946 1.4950001
0.10685881 -0.51987058 1.498
0.11097609 -0.52091169 1.501
0.11510897 -0.52195287 1.5040001
0.11996968 -0.52611732 1.516
0.12399369 -0.5264644 1.5170001
0.12793858 -0.5264644 1.5170001
0.13188346 -0.5264644 1.5170001
0.1357388 -0.52611732 1.516
0.13958897 -0.52577031 1.5150001
0.1434339 -0.52542329 1.5140001
0.14727366 -0.52507627 1.5130001
0.15110819 -0.52472919 1.5120001
0.15493754 -0.52438211 1.511
0.15876168 -0.5240351 1.5100001
0.16268836 -0.5240351 1.5100001
0.16672538 -0.52438211 1.511
0.17076759 -0.52472919 1.5120001
0.17493056 -0.52542329 1.5140001
0.1789858 -0.52577031 1.5150001
0.18328771 -0.52681148 1.5180001
0.18748188 -0.52750552 1.5200001
0.19168644 -0.52819961 1.5220001
0.19602996 -0.52924073 1.5250001
0.20025794 -0.52993482 1.5270001
0.20449631 -0.53062892 1.529
0.20874509 -0.53132302 1.531
0.21300429 -0.53201711 1.5330001
0.21741541 -0.53305823 1.536
0.22155385 -0.53340524 1.5370001
0.22555076 -0.53340524 1.5370001
0.22939828 -0.53305823 1.536
0.23324063 -0.53271121 1.5350001
0.23707776 -0.53236413 1.534
0.24043828 -0.530976 1.5300001
0.24409747 -0.5302819 1.5280001
0.2475839 -0.52924073 1.5250001
0.25105473 -0.52819961 1.5220001
0.25434244 -0.52681148 1.5180001
0.25760931 -0.52542329 1.5140001
0.26102814 -0.52438211 1.511
0.26443136 -0.523341 1.508
0.26781899 -0.52229989 1.5050001
0.27137151 -0.52160579 1.503
0.27491373 -0.52091169 1.501
0.27863124 -0.52056468 1.5000001
0.28234357 -0.52021766 1.4990001
0.28605068 -0.51987058 1.498
0.2897526 -0.51952356 1.4970001
0.29364547 -0.51952356 1.4970001
0.29753837 -0.51952356 1.4970001
0.30143124 -0.51952356 1.4970001
0.30512014 -0.51917648 1.4960001
0.30901042 -0.51917648 1.4960001
0.31269154 -0.51882946 1.4950001
0.31657922 -0.51882946 1.4950001
0.32046688 -0.51882946 1.4950001
0.32435459 -0.51882946 1.4950001
0.32824224 -0.51882946 1.4950001
0.33212993 -0.51882946 1.4950001
0.33624235 -0.51917648 1.4960001
0.34035999 -0.51952356 1.4970001
0.34448281 -0.51987058 1.498
0.34884343 -0.52056468 1.5000001
0.35297924 -0.52091169 1.501
0.35735804 -0.52160579 1.503
0.36174726 -0.52229989 1.5050001
0.36638984 -0.523341 1.508
0.371048 -0.52438211 1.511
0.37621811 -0.52611732 1.516
0.3814142 -0.52785254 1.521
0.38663632 -0.52958775 1.526
0.39214045 -0.53167003 1.5320001
0.39767572 -0.53375232 1.5380001
0.4032422 -0.53583455 1.544
0.40831241 -0.53722274 1.5480001
0.41340333 -0.53861088 1.552
0.41824615 -0.53965205 1.5550001
0.65819758 -0.79542279 2.2920001
0.66531694 -0.79681093 2.296
0.67216474 -0.7978521 2.299
0.67873311 -0.7985462 2.3010001
0.68501431 -0.79889321 2.302
0.69160092 -0.79958737 2.3040001
0.69819784 -0.80028141 2.306
0.70480525 -0.8009755 2.3080001
0.71173108 -0.80201662 2.3110001
0.71836185 -0.80271077 2.3130002
0.725003 -0.80340481 2.3150001
0.73133892 -0.80375189 2.3160002
0.74150038 -0.80826336 2.329
0.74755681 -0.80826336 2.329
0.75328976 -0.80791634 2.3280001
0.75901741 -0.80756932 2.3270001
0.76506865 -0.80756932 2.3270001
0.77078849 -0.80722231 2.3260002
0.77616918 -0.80652821 2.3240001
0.78187609 -0.80618119 2.3230002
0.78689939 -0.80514002 2.3200002
0.79224885 -0.80444592 2.3180001
0.79724354 -0.80340481 2.3150001
0.80256963 -0.80271077 2.3130002
0.81277943 -0.80687523 2.325
0.81988209 -0.80791634 2.3280001
0.82770985 -0.80965161 2.3330002
0.83484888 -0.81069273 2.3360002
0.84236348 -0.81208092 2.3400002
0.84953624 -0.81312203 2.3430002
0.85599428 -0.81346905 2.3440001
0.86282539 -0.81416315 2.3460002
0.86929637 -0.81451017 2.3470001
0.87539965 -0.81451017 2.3470001
0.88075173 -0.81381607 2.345
0.88609338 -0.81312203 2.3430002
0.89066315 -0.8117339 2.3390002
0.89214486 -0.80756932 2.3270001
0.8985821 -0.80791634 2.3280001
0.90502453 -0.80826336 2.329
0.91108096 -0.80826336 2.329
0.91201824 -0.80375189 2.3160002
0.91645527 -0.80236363 2.312
0.91847754 -0.79889321 2.302
0.92325902 -0.7978521 2.299
0.92842919 -0.79715806 2.2970002
0.93399549 -0.79681093 2.296
0.93791926 -0.79507577 2.2910001
0.94428885 -0.79542279 2.2920001
0.95729715 -0.80132252 2.309
0.96497047 -0.80271077 2.3130002
0.97560304 -0.80652821 2.3240001
0.98164642 -0.80652821 2.3240001
0.98726493 -0.80618119 2.3230002
0.99074024 -0.8040989 2.3170002
0.99762577 -0.80479294 2.319
1.0049546 -0.80583405 2.322
1.0131699 -0.80756932 2.3270001
1.024039 -0.81138676 2.3380001
1.0296783 -0.81103975 2.3370001
1.041074 -0.81520432 2.3490002
1.0400497 -0.80965161 2.3330002
1.0452198 -0.80895752 2.3310001
1.0566933 -0.81312203 2.3430002
1.0614254 -0.81208092 2.3400002
1.0602113 -0.80652821 2.3240001
1.0699251 -0.80930454 2.332
1.0644543 -0.80062848 2.3070002
1.0695256 -0.79993439 2.3050001
1.0745864 -0.79924035 2.3030002
1.0655607 -0.78813493 2.2710001
1.070051 -0.78709376 2.2680001
1.0754744 -0.78674674 2.2670002
1.0818466 -0.78709376 2.2680001
1.0867852 -0.78639966 2.266
1.0917134 -0.78570563 2.2640002
-0.86564398 -0.53939718 1.5660001
-0.86322224 -0.54043055 1.5690001
-0.85968959 -0.54077494 1.5700001
-0.85778683 -0.54215276 1.5740001
-0.85477847 -0.54284161 1.5760001
-0.85121983 -0.54318607 1.577
-0.84711897 -0.54318607 1.577
-0.84301811 -0.54318607 1.577
-0.83785319 -0.54249716 1.575
-0.82846379 -0.53905272 1.5650001
-0.82386738 -0.53870833 1.5640001
-0.81927603 -0.53836387 1.5630001
-0.81468999 -0.53801942 1.562
-0.8101092 -0.53767496 1.5610001
-0.80604982 -0.53767496 1.5610001
-0.80250424 -0.53801942 1.562
-0.79997593 -0.53905272 1.5650001
-0.79692328 -0.53974164 1.567
-0.7943663 -0.54077494 1.5700001
-0.79280043 -0.54249716 1.575
-0.79120851 -0.54421937 1.58
-0.79058701 -0.5466305 1.5870001
-0.78893787 -0.54835272 1.5920001
-0.78824872 -0.55076379 1.5990001
-0.78654242 -0.552486 1.6040001
-0.78481007 -0.55420822 1.6090001
-0.78256661 -0.55558598 1.613
-0.78512794 -0.56040817 1.6270001
-0.78089702 -0.56040817 1.6270001
-0.7766661 -0.56040817 1.6270001
-0.77006131 -0.55868602 1.6220001
-0.76914853 -0.56109709 1.6290001
-0.76491237 -0.56109709 1.6290001
-0.76067626 -0.56109709 1.6290001
-0.75597578 -0.56075263 1.628
-0.75174218 -0.56075263 1.628
-0.74704951 -0.56040817 1.6270001
-0.74190551 -0.55971932 1.6250001
-0.73677182 -0.55903041 1.623
-0.73119724 -0.55799711 1.6200001
-0.72608697 -0.5573082 1.618
-0.720541 -0.55627489 1.6150001
-0.71456701 -0.55489713 1.6110001
-0.70905489 -0.55386376 1.608
-0.70355827 -0.55283046 1.605
-0.69764149 -0.5514527 1.6010001
-0.69174564 -0.55007493 1.5970001
-0.68285662 -0.54628605 1.5860001
-0.67744839 -0.54525274 1.5830001
-0.67035449 -0.54284161 1.5760001
-0.66456509 -0.54146385 1.572
-0.65879661 -0.54008609 1.5680001
-0.6526314 -0.53836387 1.5630001
-0.64192766 -0.53285277 1.5470001
-0.63584304 -0.53113055 1.5420001
-0.63019413 -0.52975279 1.5380001
-0.62456602 -0.52837503 1.534
-0.61976784 -0.52768612 1.5320001
-0.61940151 -0.53078616 1.5410001
-0.61419618 -0.52975279 1.5380001
-0.60940313 -0.52906388 1.536
-0.60462058 -0.52837503 1.534
-0.59984839 -0.52768612 1.5320001
-0.59547555 -0.52734166 1.531
-0.59072155 -0.52665281 1.529
-0.58636177 -0.52630842 1.5280001
-0.58238828 -0.52630842 1.5280001
-0.5784148 -0.52630842 1.5280001
-0.57444125 -0.52630842 1.5280001
-0.57046783 -0.52630842 1.5280001
-0.56686503 -0.52665281 1.529
-0.5632571 -0.52699727 1.5300001
-0.56000948 -0.52768612 1.5320001
-0.55711442 -0.52871948 1.5350001
-0.55420381 -0.52975279 1.5380001
-0.55163521 -0.53113055 1.5420001
-0.54904586 -0.53250837 1.5460001
-0.54714084 -0.53457499 1.552
-0.54485458 -0.5362972 1.557
-0.5425424 -0.53801942 1.562
-0.54020417 -0.53974164 1.567
-0.53783995 -0.54146385 1.572
-0.53511018 -0.54284161 1.5760001
-0.53235966 -0.54421937 1.58
-0.52891958 -0.54490829 1.582
-0.52546912 -0.5455972 1.5840001
-0.52167916 -0.54594159 1.585
-0.51723093 -0.5455972 1.5840001
-0.51246393 -0.54490829 1.582
-0.50770736 -0.54421937 1.58
-0.50327992 -0.54387498 1.5790001
-0.49822539 -0.54284161 1.5760001
-0.4931865 -0.54180831 1.5730001
-0.48847413 -0.5411194 1.5710001
-0.48346385 -0.54008609 1.5680001
-0.47724622 -0.53767496 1.5610001
-0.47227749 -0.53664166 1.5580001
-0.47002921 -0.53870833 1.5640001
-0.46536621 -0.53801942 1.562
-0.46100897 -0.53767496 1.5610001
-0.45665696 -0.53733051 1.5600001
-0.45260024 -0.53733051 1.5600001
-0.44825599 -0.53698605 1.559
-0.44391701 -0.53664166 1.5580001
-0.44014779 -0.53698605 1.559
-0.43609366 -0.53698605 1.559
-0.43203959 -0.53698605 1.559
-0.42798549 -0.53698605 1.559
-0.42393136 -0.53698605 1.559
-0.419608 -0.53664166 1.5580001
-0.41528973 -0.5362972 1.557
-0.41097671 -0.53595281 1.5560001
-0.40614587 -0.53491944 1.5530001
-0.40133056 -0.53388613 1.5500001
-0.39627463 -0.53250837 1.5460001
-0.3912394 -0.53113055 1.5420001
-0.3884851 -0.53285277 1.5470001
-0.38346812 -0.53147501 1.5430001
-0.37576684 -0.52630842 1.5280001
-0.37082005 -0.5249306 1.524
-0.36589408 -0.52355283 1.5200001
-0.36122704 -0.52251953 1.5170001
-0.35657561 -0.52148616 1.5140001
-0.35217267 -0.52079731 1.5120001
-0.34778017 -0.5201084 1.5100001
-0.34339803 -0.51941949 1.508
-0.33925146 -0.5190751 1.5070001
-0.33533257 -0.5190751 1.5070001
-0.33119377 -0.51873064 1.506
-0.32706019 -0.51838619 1.5050001
-0.32314652 -0.51838619 1.5050001
-0.31944492 -0.51873064 1.506
-0.31552866 -0.51873064 1.506
-0.31161237 -0.51873064 1.506
-0.3076961 -0.51873064 1.506
-0.30398154 -0.5190751 1.5070001
-0.29986352 -0.51873064 1.506
-0.29575077 -0.51838619 1.5050001
-0.29164317 -0.51804173 1.5040001
-0.28754076 -0.51769727 1.503
-0.2834436 -0.51735288 1.5020001
-0.27897939 -0.51631951 1.4990001
-0.27398023 -0.51425284 1.493
-0.26937413 -0.51287514 1.4890001
-0.26478881 -0.51149732 1.485
-0.2596972 -0.50908625 1.478
-0.25498816 -0.50736403 1.473
-0.25013468 -0.50529736 1.4670001
-0.24430493 -0.50116408 1.455
-0.24134782 -0.50288624 1.46
-0.23657492 -0.50081962 1.4540001
-0.23183322 -0.49875295 1.4480001
-0.22696525 -0.49634188 1.4410001
-0.22228855 -0.49427521 1.4350001
-0.21764307 -0.49220854 1.429
-0.21153179 -0.48669749 1.4130001
-0.2075631 -0.48600855 1.411
-0.20403838 -0.48635301 1.4120001
-0.20050846 -0.48669749 1.4130001
-0.19725193 -0.48773077 1.416
-0.1938431 -0.48841968 1.4180001
-0.19055797 -0.48945302 1.4210001
-0.18738873 -0.49083078 1.4250001
-0.18458536 -0.49324188 1.432
-0.18250343 -0.49771962 1.4450001
-0.17750879 -0.49427521 1.4350001
-0.17462483 -0.49668628 1.442
-0.1700455 -0.49427521 1.4350001
-0.17048618 -0.50667512 1.4710001
-0.16450825 -0.50013071 1.452
-0.16106449 -0.50116408 1.455
-0.15749703 -0.50185293 1.457
-0.15645108 -0.51080847 1.483
-0.15105118 -0.50564182 1.4680001
-0.14803608 -0.50839734 1.4760001
-0.14605401 -0.51494181 1.4950001
-0.14197615 -0.51425284 1.493
-0.13698375 -0.51011956 1.4810001
-0.13430111 -0.5145973 1.4940001
-0.13050333 -0.51494181 1.4950001
-0.12670033 -0.51528621 1.4960001
-0.12281007 -0.51528621 1.4960001
-0.11899928 -0.51563066 1.4970001
-0.11518329 -0.51597506 1.498
-0.11136211 -0.51631951 1.4990001
-0.10746403 -0.51631951 1.4990001
-0.10363506 -0.51666397 1.5000001
-0.099867351 -0.51735288 1.5020001
-0.095961481 -0.51735288 1.5020001
-0.092055596 -0.51735288 1.5020001
-0.088208407 -0.51769727 1.503
-0.084356017 -0.51804173 1.5040001
-0.081033297 -0.52183062 1.5150001
-0.077093616 -0.52183062 1.5150001
-0.073202223 -0.52217507 1.516
-0.069259934 -0.52217507 1.516
-0.06536074 -0.52251953 1.5170001
-0.061496824 -0.52320838 1.5190001
-0.057584625 -0.52355283 1.5200001
-0.053631939 -0.52355283 1.5200001
-0.049679257 -0.52355283 1.5200001
-0.045846902 -0.5249306 1.524
-0.0419113 -0.52527505 1.5250001
-0.037920725 -0.5249306 1.524
-0.033957638 -0.5249306 1.524
-0.029856781 -0.52251953 1.5170001
-0.02592898 -0.52286398 1.5180001
-0.021967014 -0.52251953 1.5170001
-0.018105289 -0.5249306 1.524
-0.014142204 -0.5249306 1.524
-0.010172438 -0.5245862 1.5230001
-0.0062078713 -0.52424175 1.5220001
-0.0022485065 -0.52389723 1.521
0.0017056571 -0.52355283 1.5200001
0.0056062262 -0.51873064 1.506
0.0095035359 -0.51769727 1.503
0.013385244 -0.51666397 1.5000001
0.017251348 -0.51563066 1.4970001
0.021087725 -0.51425284 1.493
0.024920024 -0.51321959 1.4900001
0.028736722 -0.51218623 1.4870001
0.032559738 -0.51149732 1.485
0.036347829 -0.51046401 1.4820001
0.040120319 -0.50943071 1.4790001
0.043906931 -0.5087418 1.4770001
0.047683138 -0.50805289 1.475
0.051448952 -0.50736403 1.473
0.055204362 -0.50667512 1.4710001
0.059029624 -0.50667512 1.4710001
0.062769428 -0.50598627 1.4690001
0.066634819 -0.50633067 1.47
0.070457481 -0.50633067 1.47
0.07433068 -0.50667512 1.4710001
0.078209072 -0.50701958 1.4720001
0.082204126 -0.50805289 1.475
0.086214788 -0.50908625 1.478
0.090301991 -0.51046401 1.4820001
0.094346449 -0.51149732 1.485
0.098472655 -0.51287514 1.4890001
0.10261966 -0.51425284 1.493
0.10671614 -0.51528621 1.4960001
0.11082821 -0.51631951 1.4990001
0.1149559 -0.51735288 1.5020001
0.11902005 -0.51804173 1.5040001
0.1230946 -0.51873064 1.506
0.12793858 -0.52251953 1.5170001
0.13188346 -0.52251953 1.5170001
0.13582835 -0.52251953 1.5170001
0.1396811 -0.52217507 1.516
0.14352864 -0.52183062 1.5150001
0.14737099 -0.52148616 1.5140001
0.15130806 -0.52148616 1.5140001
0.15514262 -0.52114177 1.5130001
0.15907711 -0.52114177 1.5130001
0.16301158 -0.52114177 1.5130001
0.1670564 -0.52148616 1.5140001
0.17110643 -0.52183062 1.5150001
0.17516164 -0.52217507 1.516
0.17934023 -0.52286398 1.5180001
0.18364993 -0.52389723 1.521
0.18785191 -0.5245862 1.5230001
0.19193833 -0.5249306 1.524
0.19628704 -0.5259639 1.5270001
0.20052023 -0.52665281 1.529
0.2047638 -0.52734166 1.531
0.20888144 -0.52768612 1.5320001
0.21342112 -0.52906388 1.536
0.21755695 -0.52940834 1.5370001
0.22155385 -0.52940834 1.5370001
0.2256975 -0.52975279 1.5380001
0.22954763 -0.52940834 1.5370001
0.23354453 -0.52940834 1.5370001
0.23707776 -0.52837503 1.534
0.24075258 -0.52768612 1.5320001
0.24425721 -0.52665281 1.529
0.24774624 -0.52561945 1.526
0.25121972 -0.5245862 1.5230001
0.25450999 -0.52320838 1.5190001
0.25794959 -0.52217507 1.516
0.26137364 -0.52114177 1.5130001
0.26478207 -0.5201084 1.5100001
0.26817489 -0.5190751 1.5070001
0.27173266 -0.51838619 1.5050001
0.27546319 -0.51804173 1.5040001
0.27918848 -0.51769727 1.503
0.28290862 -0.51735288 1.5020001
0.28662354 -0.51700842 1.501
0.29033327 -0.51666397 1.5000001
0.29423395 -0.51666397 1.5000001
0.29813465 -0.51666397 1.5000001
0.30183396 -0.51631951 1.4990001
0.30552804 -0.51597506 1.498
0.30942351 -0.51597506 1.498
0.31310987 -0.51563066 1.4970001
0.31700274 -0.51563066 1.4970001
0.32089561 -0.51563066 1.4970001
0.32478848 -0.51563066 1.4970001
0.32868135 -0.51563066 1.4970001
0.33279637 -0.51597506 1.498
0.33691663 -0.51631951 1.4990001
0.34081471 -0.51631951 1.4990001
0.3451727 -0.51700842 1.501
0.34930852 -0.51735288 1.5020001
0.35344958 -0.51769727 1.503
0.35783359 -0.51838619 1.5050001
0.36246833 -0.51941949 1.508
0.36711872 -0.52045286 1.511
0.37178469 -0.52148616 1.5140001
0.3769626 -0.52320838 1.5190001
0.38241729 -0.52527505 1.5250001
0.38739643 -0.52665281 1.529
0.39316431 -0.52906388 1.536
0.39896855 -0.53147501 1.5430001
0.40428689 -0.53319722 1.5480001
0.40963125 -0.53491944 1.5530001
0.41473517 -0.5362972 1.557
0.41959101 -0.53733051 1.5600001
0.65762329 -0.78877372 2.2900002
0.6647374 -0.79015148 2.2940001
0.67187238 -0.79152924 2.2980001
0.67843813 -0.79221815 2.3000002
0.68471676 -0.79256254 2.3010001
0.69130081 -0.79325145 2.3030002
0.69789505 -0.79394031 2.3050001
0.7044999 -0.79462922 2.3070002
0.71111506 -0.79531807 2.309
0.71774065 -0.79600698 2.3110001
0.72437674 -0.79669589 2.3130002
0.73102307 -0.79738474 2.3150001
0.74118197 -0.80186248 2.3280001
0.74723589 -0.80186248 2.3280001
0.75328976 -0.80186248 2.3280001
0.75901741 -0.80151808 2.3270001
0.76506865 -0.80151808 2.3270001
0.77078849 -0.80117363 2.3260002
0.77683717 -0.80117363 2.3260002
0.7825492 -0.80082917 2.325
0.78757769 -0.79979581 2.322
0.79293245 -0.79910696 2.3200002
0.79827672 -0.79841805 2.3180001
0.80361062 -0.79772919 2.3160002
0.81382823 -0.80186248 2.3280001
0.82093865 -0.80289584 2.3310001
0.82948369 -0.80530691 2.3380001
0.83663577 -0.80634022 2.3410001
0.84380341 -0.80737358 2.3440001
0.85098654 -0.80840689 2.3470001
0.85745502 -0.80875134 2.348
0.8642965 -0.80944026 2.3500001
0.87040752 -0.80944026 2.3500001
0.87651861 -0.80944026 2.3500001
0.88225412 -0.8090958 2.3490002
0.88760614 -0.80840689 2.3470001
0.89218628 -0.80702913 2.3430002
0.89329505 -0.80255139 2.3300002
0.8997401 -0.80289584 2.3310001
0.90619034 -0.80324024 2.332
0.91225451 -0.80324024 2.332
0.91831881 -0.80324024 2.332
0.91922998 -0.7987625 2.319
0.91927558 -0.79359591 2.3040001
0.92406225 -0.79256254 2.3010001
0.92964172 -0.79221815 2.3000002
0.93562275 -0.79221815 2.3000002
0.94815409 -0.79772919 2.3160002
0.95541269 -0.7987625 2.319
0.95812637 -0.79600698 2.3110001
0.96580476 -0.79738474 2.3150001
0.97350401 -0.7987625 2.319
0.98122406 -0.80014032 2.3230002
0.98853993 -0.80117363 2.3260002
1.0048509 -0.80944026 2.3500001
1.0113921 -0.80978465 2.3510001
1.0166402 -0.8090958 2.3490002
1.0266671 -0.81219578 2.358
1.0244771 -0.80565143 2.3390002
1.0301189 -0.80530691 2.3380001
1.0415171 -0.80944026 2.3500001
1.0409412 -0.80427355 2.335
1.0461166 -0.80358475 2.3330002
1.0517323 -0.80324024 2.332
1.0568894 -0.80255139 2.3300002
1.0606675 -0.80082917 2.325
1.0644195 -0.79910696 2.3200002
1.0658386 -0.79566252 2.3100002
1.0713816 -0.79531807 2.309
1.0759861 -0.7942847 2.306
1.0810444 -0.79359591 2.3040001
1.0856205 -0.79256254 2.3010001
1.089232 -0.79084027 2.296
1.0913867 -0.78808481 2.2880001
1.1021326 -0.79152924 2.2980001
1.1076262 -0.79118478 2.2970002
-0.86785501 -0.53669226 1.5700001
-0.86487269 -0.53737593 1.572
-0.8613323 -0.53771776 1.5730001
-0.85942173 -0.53908509 1.577
-0.85640562 -0.53976882 1.5790001
-0.85175967 -0.53942698 1.5780001
-0.84819335 -0.53976882 1.5790001
-0.84355271 -0.53942698 1.5780001
-0.83838516 -0.53874332 1.5760001
-0.8274051 -0.53429937 1.5630001
-0.82281381 -0.53395748 1.562
-0.81822771 -0.53361565 1.5610001
-0.81416845 -0.53361565 1.5610001
-0.80959016 -0.53327382 1.5600001
-0.80604982 -0.53361565 1.5610001
-0.80250424 -0.53395748 1.562
-0.79997593 -0.53498304 1.5650001
-0.79743183 -0.53600854 1.5680001
-0.79537821 -0.53737593 1.572
-0.79380715 -0.53908509 1.577
-0.79220998 -0.54079431 1.582
-0.79208142 -0.54352909 1.59
-0.79092008 -0.54558015 1.5960001
-0.79022056 -0.54797304 1.603
-0.78850383 -0.54968226 1.608
-0.78676111 -0.55139142 1.613
-0.78450727 -0.55275881 1.6170001
-0.78657562 -0.55720276 1.6300001
-0.78233689 -0.55720276 1.6300001
-0.77809817 -0.55720276 1.6300001
-0.77148563 -0.55549359 1.6250001
-0.76725996 -0.55549359 1.6250001
-0.76632106 -0.55788648 1.6320001
-0.76207715 -0.55788648 1.6320001
-0.75736886 -0.55754459 1.631
-0.75312752 -0.55754459 1.631
-0.74842703 -0.55720276 1.6300001
-0.74327517 -0.55651909 1.628
-0.73813373 -0.55583537 1.626
-0.73300266 -0.5551517 1.6240001
-0.72743326 -0.5541262 1.6210001
-0.72187942 -0.55310065 1.618
-0.71634126 -0.55207515 1.6150001
-0.71081871 -0.55104965 1.6120001
-0.70487332 -0.54968226 1.608
-0.6989488 -0.54831487 1.6040001
-0.69304508 -0.54694748 1.6
-0.68414825 -0.54318726 1.5890001
-0.67744839 -0.54113621 1.5830001
-0.67163056 -0.53976882 1.5790001
-0.66583335 -0.53840142 1.575
-0.65501523 -0.53293198 1.559
-0.64845586 -0.53088093 1.5530001
-0.64234263 -0.52917171 1.5480001
-0.63625538 -0.52746248 1.5430001
-0.63060385 -0.52609509 1.539
-0.62497318 -0.52472776 1.5350001
-0.62017244 -0.5240441 1.5330001
-0.61538202 -0.52336037 1.531
-0.61100137 -0.52301854 1.5300001
-0.61059338 -0.52609509 1.539
-0.60580301 -0.52541143 1.5370001
-0.60063148 -0.52438593 1.534
-0.59625345 -0.5240441 1.5330001
-0.59149426 -0.52336037 1.531
-0.58751291 -0.52336037 1.531
-0.58315057 -0.52301854 1.5300001
-0.57917184 -0.52301854 1.5300001
-0.57519317 -0.52301854 1.5300001
-0.5715878 -0.52336037 1.531
-0.56760651 -0.52336037 1.531
-0.56399333 -0.5237022 1.5320001
-0.56074059 -0.52438593 1.534
-0.55747736 -0.52506959 1.536
-0.55492443 -0.52643698 1.5400001
-0.55199295 -0.52746248 1.5430001
-0.54975617 -0.52917171 1.5480001
-0.5474934 -0.53088093 1.5530001
-0.54555446 -0.53293198 1.559
-0.54323709 -0.53464121 1.5640001
-0.54089367 -0.53635043 1.5690001
-0.53886634 -0.53840142 1.575
-0.53612882 -0.53976882 1.5790001
-0.53337044 -0.54113621 1.5830001
-0.53025693 -0.5421617 1.5860001
-0.5267961 -0.54284537 1.5880001
-0.52299577 -0.54318726 1.5890001
-0.51853704 -0.54284537 1.5880001
-0.51408362 -0.5425036 1.5870001
-0.50963539 -0.5421617 1.5860001
-0.50455487 -0.54113621 1.5830001
-0.49980605 -0.54045248 1.5810001
-0.49475417 -0.53942698 1.5780001
-0.48971784 -0.53840142 1.575
-0.48438886 -0.53703409 1.5710001
-0.47846913 -0.53498304 1.5650001
-0.47318688 -0.53361565 1.5610001
-0.47093078 -0.5356667 1.567
-0.46626002 -0.53498304 1.5650001
-0.46159962 -0.53429937 1.5630001
-0.4572424 -0.53395748 1.562
-0.45318049 -0.53395748 1.562
-0.44883105 -0.53361565 1.5610001
-0.44448686 -0.53327382 1.5600001
-0.44014779 -0.53293198 1.559
-0.43637341 -0.53327382 1.5600001
-0.43203959 -0.53293198 1.559
-0.42826003 -0.53327382 1.5600001
-0.42393136 -0.53293198 1.559
-0.41987729 -0.53293198 1.559
-0.41555646 -0.53259015 1.5580001
-0.41124082 -0.53224826 1.557
-0.40640736 -0.53122276 1.554
-0.40184841 -0.5305391 1.552
-0.39678726 -0.52917171 1.5480001
-0.39377663 -0.5305391 1.552
-0.38898733 -0.52951354 1.549
-0.38396516 -0.52814621 1.5450001
-0.37625867 -0.52301854 1.5300001
-0.37130669 -0.52165115 1.526
-0.36637554 -0.52028382 1.5220001
-0.36170328 -0.51925826 1.5190001
-0.35728216 -0.5185746 1.5170001
-0.35263851 -0.5175491 1.5140001
-0.34824079 -0.51686537 1.5120001
-0.34408119 -0.51652354 1.511
-0.33992681 -0.51618171 1.5100001
-0.33600014 -0.51618171 1.5100001
-0.33185354 -0.51583987 1.5090001
-0.32792947 -0.51583987 1.5090001
-0.32379064 -0.51549798 1.508
-0.32008129 -0.51583987 1.5090001
-0.31636673 -0.51618171 1.5100001
-0.31244004 -0.51618171 1.5100001
-0.30851337 -0.51618171 1.5100001
-0.30458668 -0.51618171 1.5100001
-0.30065998 -0.51618171 1.5100001
-0.2965368 -0.51583987 1.5090001
-0.29241881 -0.51549798 1.508
-0.28849733 -0.51549798 1.508
-0.28438714 -0.51515621 1.5070001
-0.28009605 -0.51447248 1.5050001
-0.27508131 -0.51242143 1.4990001
-0.27045959 -0.5110541 1.4950001
-0.26585868 -0.50968671 1.4910001
-0.26075146 -0.50729382 1.4840001
-0.25602683 -0.5055846 1.4790001
-0.25166926 -0.5045591 1.4760001
-0.24732725 -0.50353354 1.473
-0.24217434 -0.50079882 1.465
-0.23738845 -0.49874777 1.4590001
-0.23263375 -0.49669671 1.4530001
-0.22759525 -0.49396196 1.4450001
-0.22290815 -0.4919109 1.439
-0.21794769 -0.48917618 1.4310001
-0.21183118 -0.48370671 1.4150001
-0.20785733 -0.48302302 1.4130001
-0.20418289 -0.48302302 1.4130001
-0.20079227 -0.48370671 1.4150001
-0.19739124 -0.48439038 1.4170001
-0.19411649 -0.48541591 1.4200001
-0.19096026 -0.48678327 1.424
-0.18765172 -0.48780879 1.427
-0.18497208 -0.49054354 1.4350001
-0.18161933 -0.49156907 1.4380001
-0.17775618 -0.49122721 1.437
-0.1786211 -0.50421721 1.475
-0.17514093 -0.50524276 1.478
-0.17037028 -0.50250798 1.47
-0.16892686 -0.50968671 1.4910001
-0.16549239 -0.5110541 1.4950001
-0.1620371 -0.51242143 1.4990001
-0.15824452 -0.51276332 1.5000001
-0.15444674 -0.51310509 1.501
-0.15084435 -0.51413065 1.5040001
-0.1464448 -0.51242143 1.4990001
-0.14273691 -0.51310509 1.501
-0.13948108 -0.51549798 1.508
-0.13502026 -0.51344699 1.5020001
-0.13120165 -0.51378882 1.503
-0.12729318 -0.51378882 1.503
-0.12338471 -0.51378882 1.503
-0.11947622 -0.51378882 1.503
-0.11564465 -0.51413065 1.5040001
-0.11173356 -0.51413065 1.5040001
-0.10782249 -0.51413065 1.5040001
-0.1039805 -0.51447248 1.5050001
-0.10013331 -0.51481432 1.506
-0.096217036 -0.51481432 1.506
-0.09230075 -0.51481432 1.506
-0.08844316 -0.51515621 1.5070001
-0.084580369 -0.51549798 1.508
-0.080658883 -0.51549798 1.508
-0.077348053 -0.51960015 1.5200001
-0.073395371 -0.51960015 1.5200001
-0.069488369 -0.51994199 1.521
-0.065533079 -0.51994199 1.521
-0.06161828 -0.52028382 1.5220001
-0.057660393 -0.52028382 1.5220001
-0.053737793 -0.52062565 1.5230001
-0.049875356 -0.52165115 1.526
-0.045937151 -0.52199304 1.5270001
-0.041993748 -0.52233487 1.5280001
-0.038020257 -0.52233487 1.5280001
-0.034046769 -0.52233487 1.5280001
-0.029955188 -0.52028382 1.5220001
-0.025980221 -0.51994199 1.521
-0.022024935 -0.51994199 1.521
-0.018152811 -0.52233487 1.5280001
-0.014179323 -0.52233487 1.5280001
-0.010199154 -0.52199304 1.5270001
-0.0062282649 -0.52199304 1.5270001
-0.002255898 -0.52165115 1.526
0.0017101456 -0.52096748 1.524
0.0056695105 -0.52062565 1.5230001
0.0095414752 -0.51583987 1.5090001
0.013438785 -0.51481432 1.506
0.017320491 -0.51378882 1.503
