# .PCD v0.7 - Point Cloud Data file format
VERSION 0.7
FIELDS x y z
SIZE 4 4 4
TYPE F F F
COUNT 1 1 1
WIDTH 1488
HEIGHT 1
VIEWPOINT 0 0 0 1 0 0 0
POINTS 1488
DATA ascii
-0.32775167 -0.4385002 1.5840001
-0.32383686 -0.438777 1.585
-0.31991687 -0.43905386 1.5860001
-0.31638989 -0.43988433 1.5890001
-0.3126508 -0.440438 1.5910001
-0.30948305 -0.44182214 1.5960001
-0.30609795 -0.44292948 1.6
-0.30288079 -0.44431362 1.605
-0.29963765 -0.44569781 1.6100001
-0.29636848 -0.44708195 1.6150001
-0.29289234 -0.44818926 1.6190001
-0.28939545 -0.44929656 1.623
-0.28570205 -0.45012707 1.626
-0.28164682 -0.45040393 1.6270001
-0.2775864 -0.45068073 1.628
-0.27335286 -0.45068073 1.628
-0.26911935 -0.45068073 1.628
-0.26488578 -0.45068073 1.628
-0.26049218 -0.45040393 1.6270001
-0.25610372 -0.45012707 1.626
-0.25187537 -0.45012707 1.626
-0.24749476 -0.44985026 1.6250001
-0.24311933 -0.44957343 1.6240001
-0.23889618 -0.44957343 1.6240001
-0.23467305 -0.44957343 1.6240001
-0.23030801 -0.44929656 1.623
-0.2259482 -0.44901976 1.6220001
-0.22159354 -0.44874293 1.6210001
-0.21724412 -0.44846612 1.6200001
-0.21342589 -0.44929656 1.623
-0.20830305 -0.44735876 1.6160001
-0.20447962 -0.44818926 1.6190001
-0.19927989 -0.44597462 1.6110001
-0.19484837 -0.44542095 1.6090001
-0.19066425 -0.44542095 1.6090001
-0.18624833 -0.44486731 1.6070001
-0.1818428 -0.44431362 1.605
-0.17744768 -0.44375998 1.603
-0.17317107 -0.44348314 1.6020001
-0.16889964 -0.44320631 1.6010001
-0.16473633 -0.44320631 1.6010001
-0.16187684 -0.44680512 1.6140001
-0.15777741 -0.44708195 1.6150001
-0.15367278 -0.44735876 1.6160001
-0.14947045 -0.44735876 1.6160001
-0.14535803 -0.44763562 1.6170001
-0.14124037 -0.44791242 1.618
-0.13711753 -0.44818926 1.6190001
-0.13290742 -0.44818926 1.6190001
-0.12774338 -0.44486731 1.6070001
-0.12364135 -0.44514412 1.608
-0.11938553 -0.44486731 1.6070001
-0.11520661 -0.44486731 1.6070001
-0.11095859 -0.44459045 1.6060001
-0.10664929 -0.44403681 1.6040001
-0.1023504 -0.44348314 1.6020001
-0.098061882 -0.44292948 1.6
-0.093783788 -0.44237581 1.598
-0.089516096 -0.44182214 1.5960001
-0.085258797 -0.4412685 1.5940001
-0.081011906 -0.44071484 1.5920001
-0.076775417 -0.44016117 1.59
-0.072549328 -0.4396075 1.5880001
-0.068333641 -0.43905386 1.5860001
-0.064735629 -0.44265264 1.5990001
-0.060615391 -0.44292948 1.6
-0.056489956 -0.44320631 1.6010001
-0.052392002 -0.44375998 1.603
-0.048283644 -0.44431362 1.605
-0.044164889 -0.44486731 1.6070001
-0.04006061 -0.44569781 1.6100001
-0.035940729 -0.44652826 1.613
-0.031785566 -0.44708195 1.6150001
-0.027619999 -0.44763562 1.6170001
-0.02342955 -0.44791242 1.618
-0.019222019 -0.44791242 1.618
-0.015014492 -0.44791242 1.618
-0.010806962 -0.44791242 1.618
-0.0065994319 -0.44791242 1.618
-0.0023919025 -0.44791242 1.618
0.001814505 -0.44763562 1.6170001
0.0060157115 -0.44735876 1.6160001
0.010205395 -0.44680512 1.6140001
0.014384675 -0.44625145 1.6120001
0.018438315 -0.44292948 1.6
0.022627287 -0.44348314 1.6020001
0.026793208 -0.44348314 1.6020001
0.030959131 -0.44348314 1.6020001
0.035125054 -0.44348314 1.6020001
0.039290976 -0.44348314 1.6020001
0.043565404 -0.44459045 1.6060001
0.047414728 -0.44154531 1.595
0.051530119 -0.4412685 1.5940001
0.055570461 -0.440438 1.5910001
0.059670243 -0.44016117 1.59
0.063724704 -0.4396075 1.5880001
0.06776876 -0.43905386 1.5860001
0.071893074 -0.43905386 1.5860001
0.075969465 -0.438777 1.585
0.080040649 -0.4385002 1.5840001
0.084159762 -0.4385002 1.5840001
0.088223144 -0.43822336 1.5830001
0.092339657 -0.43822336 1.5830001
0.09645617 -0.43822336 1.5830001
0.10050915 -0.4379465 1.582
0.10449079 -0.43739286 1.58
0.10853078 -0.43711603 1.5790001
0.11249422 -0.43656236 1.577
0.11644726 -0.43600869 1.575
0.1203899 -0.43545505 1.5730001
0.12432215 -0.43490139 1.5710001
0.12897959 -0.43683919 1.5780001
0.1321554 -0.43379405 1.567
0.13640419 -0.43434775 1.5690001
0.139768 -0.43213308 1.5610001
0.14364302 -0.43157938 1.559
0.14750765 -0.43102574 1.557
0.15136188 -0.43047208 1.5550001
0.15530562 -0.43019524 1.554
0.15914166 -0.42964157 1.552
0.16307244 -0.42936477 1.5510001
0.16710572 -0.42936477 1.5510001
0.17102869 -0.42908794 1.5500001
0.17494643 -0.4288111 1.549
0.178859 -0.42853427 1.5480001
0.18264821 -0.42798063 1.5460001
0.1866685 -0.42798063 1.5460001
0.19056547 -0.42770377 1.5450001
0.1944572 -0.42742693 1.544
0.19834375 -0.42715013 1.5430001
0.20209397 -0.42659646 1.5410001
0.20436259 -0.42299765 1.5280001
0.20779067 -0.42189032 1.524
0.21133693 -0.42105982 1.521
0.21486759 -0.42022935 1.5180001
0.21823847 -0.41912201 1.5140001
0.22188208 -0.41856837 1.5120001
0.22551526 -0.41801471 1.5100001
0.22928998 -0.41773787 1.5090001
0.23321405 -0.41773787 1.5090001
0.23713815 -0.41773787 1.5090001
0.24106222 -0.41773787 1.5090001
0.2456357 -0.41884521 1.5130001
0.25006503 -0.41967568 1.516
0.25450999 -0.42050618 1.5190001
0.26084217 -0.42438182 1.5330001
0.26500142 -0.42465863 1.534
0.2686398 -0.42410499 1.5320001
0.27280167 -0.42438182 1.5330001
0.27678815 -0.42438182 1.5330001
0.28095779 -0.42465863 1.534
0.28513265 -0.42493546 1.5350001
0.28912431 -0.42493546 1.5350001
0.29311603 -0.42493546 1.5350001
0.29710773 -0.42493546 1.5350001
0.30090323 -0.42465863 1.534
0.30668116 -0.42715013 1.5430001
0.31049228 -0.42687327 1.5420001
0.31429824 -0.42659646 1.5410001
0.31809896 -0.42631963 1.5400001
0.32210365 -0.42631963 1.5400001
0.32589659 -0.4260428 1.539
0.32989866 -0.4260428 1.539
0.33368385 -0.42576596 1.5380001
0.33790287 -0.4260428 1.539
0.33968335 -0.42327449 1.529
0.34433374 -0.42410499 1.5320001
0.34922707 -0.42521229 1.536
0.35414121 -0.42631963 1.5400001
0.35907614 -0.42742693 1.544
0.36426705 -0.4288111 1.549
0.36924621 -0.42991844 1.5530001
0.3785727 -0.43600869 1.575
0.38412622 -0.43766969 1.5810001
0.38921976 -0.438777 1.585
0.3948305 -0.440438 1.5910001
0.3997201 -0.4412685 1.5940001
0.4107061 -0.44874293 1.6210001
0.42183256 -0.45621738 1.6480001
0.44266635 -0.47393456 1.7120001
0.56709778 -0.58937305 2.1290002
0.57613075 -0.59297186 2.1420002
0.61374605 -0.62563783 2.26
0.63470232 -0.6408636 2.3150001
0.65179318 -0.65193683 2.355
0.65819663 -0.65221369 2.3560002
0.67673004 -0.6643942 2.4000001
0.68183285 -0.66328692 2.3960001
0.69811451 -0.67297602 2.4310002
0.70472598 -0.67325282 2.4320002
0.71105033 -0.67325282 2.4320002
0.71737456 -0.67325282 2.4320002
0.72607946 -0.67546743 2.4400001
0.73272479 -0.6757443 2.4410002
0.73907244 -0.6757443 2.4410002
0.74511474 -0.67546743 2.4400001
0.75115192 -0.67519063 2.4390001
0.75656265 -0.67436016 2.4360001
0.76164466 -0.67325282 2.4320002
0.76765323 -0.67297602 2.4310002
0.77333814 -0.67242235 2.4290001
0.77933365 -0.67214549 2.4280002
0.78564757 -0.67214549 2.4280002
0.78837341 -0.66910034 2.4170001
0.79564512 -0.66993082 2.4200001
0.80326366 -0.67103815 2.424
0.81157106 -0.67269915 2.4300001
0.81923646 -0.67380643 2.434
0.82726187 -0.67519063 2.4390001
0.83565509 -0.67685163 2.4450002
0.8433907 -0.67795897 2.4490001
0.85080016 -0.67878944 2.4520001
0.857526 -0.67906624 2.4530001
0.8596788 -0.6757443 2.4410002
0.86531687 -0.67519063 2.4390001
0.8702299 -0.67408329 2.4350002
0.87548202 -0.67325282 2.4320002
0.88071853 -0.67242235 2.4290001
0.88630462 -0.67186862 2.427
0.88268578 -0.6643942 2.4000001
0.88781565 -0.66356373 2.3970001
0.89292997 -0.6627332 2.3940001
0.89802873 -0.66190273 2.391
0.90349001 -0.66134912 2.3890002
0.90932167 -0.66107219 2.388
0.91553152 -0.66107219 2.388
0.9256013 -0.66384053 2.398
0.93067151 -0.66301012 2.3950002
0.9365083 -0.6627332 2.3940001
0.94273382 -0.6627332 2.3940001
0.94895929 -0.6627332 2.3940001
0.95598274 -0.66328692 2.3960001
0.96261501 -0.66356373 2.3970001
0.96925247 -0.66384053 2.398
0.97711557 -0.66494793 2.4020002
0.98377126 -0.66522473 2.4030001
0.99043214 -0.66550153 2.404
0.99834198 -0.66660887 2.4080002
1.0046039 -0.66660887 2.4080002
1.0087668 -0.66522473 2.4030001
1.0150156 -0.66522473 2.4030001
1.0204145 -0.664671 2.401
1.0262307 -0.6643942 2.4000001
1.0277395 -0.66134912 2.3890002
1.0330864 -0.66079539 2.3870001
1.0384229 -0.66024178 2.3850002
1.043749 -0.65968812 2.3830001
1.0490646 -0.65913439 2.381
1.0543699 -0.65858078 2.3790002
1.0601106 -0.65830392 2.378
1.0662944 -0.65830392 2.378
1.0724783 -0.65830392 2.378
1.0786622 -0.65830392 2.378
1.0843899 -0.65802711 2.3770001
1.0910299 -0.65830392 2.378
1.1022893 -0.66134912 2.3890002
1.1033977 -0.65830392 2.378
1.1119146 -0.65968812 2.3830001
1.1199883 -0.66079539 2.3870001
1.1233648 -0.65913439 2.381
1.1281332 -0.65830392 2.378
1.1338401 -0.65802711 2.3770001
1.1395419 -0.65775031 2.3760002
1.1457205 -0.65775031 2.3760002
1.1523839 -0.65802711 2.3770001
-0.90489089 -0.44891533 1.6370001
-0.9011842 -0.44918957 1.6380001
-0.89637703 -0.44891533 1.6370001
-0.89266509 -0.44918957 1.6380001
-0.88840556 -0.44918957 1.6380001
-0.88414598 -0.44918957 1.6380001
-0.87934929 -0.44891533 1.6370001
-0.87509239 -0.44891533 1.6370001
-0.87030339 -0.44864106 1.636
-0.8655197 -0.44836685 1.6350001
-0.86074126 -0.44809261 1.6340001
-0.85544372 -0.44754416 1.6320001
-0.85067821 -0.44726992 1.631
-0.845918 -0.44699571 1.6300001
-0.8411628 -0.44672146 1.6290001
-0.8369267 -0.44672146 1.6290001
-0.8326906 -0.44672146 1.6290001
-0.82845438 -0.44672146 1.6290001
-0.82421827 -0.44672146 1.6290001
-0.81947881 -0.44644722 1.628
-0.81524515 -0.44644722 1.628
-0.81101167 -0.44644722 1.628
-0.80578703 -0.44589877 1.626
-0.80057281 -0.44535032 1.6240001
-0.79536891 -0.44480187 1.6220001
-0.7901755 -0.44425341 1.6200001
-0.77917045 -0.44041416 1.6060001
-0.7730639 -0.43931726 1.6020001
-0.76697809 -0.43822032 1.598
-0.76139051 -0.43739763 1.595
-0.7562933 -0.43684918 1.5930001
-0.75167865 -0.43657497 1.5920001
-0.74706912 -0.43630072 1.5910001
-0.74293178 -0.43630072 1.5910001
-0.73833013 -0.43602648 1.59
-0.73419541 -0.43602648 1.59
-0.73051983 -0.43630072 1.5910001
-0.72638255 -0.43630072 1.5910001
-0.72269922 -0.43657497 1.5920001
-0.71855927 -0.43657497 1.5920001
-0.71486813 -0.43684918 1.5930001
-0.71072555 -0.43684918 1.5930001
-0.70658302 -0.43684918 1.5930001
-0.70288152 -0.43712342 1.5940001
-0.69873637 -0.43712342 1.5940001
-0.69502699 -0.43739763 1.595
-0.69131249 -0.43767187 1.5960001
-0.68759269 -0.43794611 1.5970001
-0.68386769 -0.43822032 1.598
-0.68098825 -0.43904302 1.6010001
-0.67767042 -0.43959147 1.603
-0.67476231 -0.44041416 1.6060001
-0.67601418 -0.44397917 1.6190001
-0.6709742 -0.44343072 1.6170001
-0.66759396 -0.44397917 1.6190001
-0.66379356 -0.44425341 1.6200001
-0.66039515 -0.44480187 1.6220001
-0.65739089 -0.44562456 1.6250001
-0.65356702 -0.44589877 1.626
-0.64893937 -0.44562456 1.6250001
-0.64471364 -0.44562456 1.6250001
-0.63772887 -0.44370493 1.618
-0.63273823 -0.44315648 1.6160001
-0.62775803 -0.44260803 1.6140001
-0.62317455 -0.44233379 1.613
-0.62051499 -0.44343072 1.6170001
-0.61516666 -0.44260803 1.6140001
-0.6098339 -0.44178531 1.6110001
-0.60489267 -0.44123685 1.6090001
-0.59996188 -0.4406884 1.6070001
-0.59504145 -0.44013992 1.605
-0.59049958 -0.43986571 1.6040001
-0.58596295 -0.43959147 1.603
-0.58143145 -0.43931726 1.6020001
-0.57690525 -0.43904302 1.6010001
-0.57274187 -0.43904302 1.6010001
-0.56857854 -0.43904302 1.6010001
-0.56406271 -0.43876877 1.6
-0.55990195 -0.43876877 1.6
-0.55608857 -0.43904302 1.6010001
-0.55261475 -0.43959147 1.603
-0.54947263 -0.44041416 1.6060001
-0.5463149 -0.44123685 1.6090001
-0.5431416 -0.44205958 1.6120001
-0.54028702 -0.44315648 1.6160001
-0.53741163 -0.44425341 1.6200001
-0.53451544 -0.44535032 1.6240001
-0.53159845 -0.44644722 1.628
-0.52866066 -0.44754416 1.6320001
-0.52538073 -0.44836685 1.6350001
-0.52112901 -0.44836685 1.6350001
-0.51719332 -0.44864106 1.636
-0.51293904 -0.44864106 1.636
-0.50868469 -0.44864106 1.636
-0.50412208 -0.44836685 1.6350001
-0.4998703 -0.44836685 1.6350001
-0.49561855 -0.44836685 1.6350001
-0.49076581 -0.4478184 1.6330001
-0.48651925 -0.4478184 1.6330001
-0.48197734 -0.44754416 1.6320001
-0.477148 -0.44699571 1.6300001
-0.47261912 -0.44672146 1.6290001
-0.46867049 -0.44699571 1.6300001
-0.46414685 -0.44672146 1.6290001
-0.45962834 -0.44644722 1.628
-0.4553948 -0.44644722 1.628
-0.45032996 -0.44562456 1.6250001
-0.44582966 -0.44535032 1.6240001
-0.44133458 -0.44507608 1.623
-0.43711409 -0.44507608 1.623
-0.43289351 -0.44507608 1.623
-0.42867297 -0.44507608 1.623
-0.42419097 -0.44480187 1.6220001
-0.41997302 -0.44480187 1.6220001
-0.41601142 -0.44507608 1.623
-0.41153717 -0.44480187 1.6220001
-0.4070681 -0.44452763 1.6210001
-0.40260428 -0.44425341 1.6200001
-0.39789969 -0.44370493 1.618
-0.39320552 -0.44315648 1.6160001
-0.38852173 -0.44260803 1.6140001
-0.38361025 -0.44178531 1.6110001
-0.37894991 -0.44123685 1.6090001
-0.37406701 -0.44041416 1.6060001
-0.36896944 -0.43931726 1.6020001
-0.36412036 -0.43849456 1.5990001
-0.35928687 -0.43767187 1.5960001
-0.354469 -0.43684918 1.5930001
-0.34988666 -0.43630072 1.5910001
-0.34531471 -0.43575227 1.5890001
-0.34096786 -0.43547803 1.5880001
-0.33641413 -0.43492958 1.5860001
-0.33228981 -0.43492958 1.5860001
-0.3281655 -0.43492958 1.5860001
-0.32404119 -0.43492958 1.5860001
-0.32032031 -0.43547803 1.5880001
-0.316589 -0.43602648 1.59
-0.31284732 -0.43657497 1.5920001
-0.30967698 -0.43794611 1.5970001
-0.30628929 -0.43904302 1.6010001
-0.30288079 -0.44013992 1.605
-0.29963765 -0.44151112 1.6100001
-0.29636848 -0.44288227 1.6150001
-0.29289234 -0.44397917 1.6190001
-0.28939545 -0.44507608 1.623
-0.28570205 -0.44589877 1.626
-0.28181991 -0.44644722 1.628
-0.2777569 -0.44672146 1.6290001
-0.27352077 -0.44672146 1.6290001
-0.26928467 -0.44672146 1.6290001
-0.26700097 -0.45001224 1.641
-0.26273364 -0.45001224 1.641
-0.2583088 -0.44973803 1.6400001
-0.25203028 -0.44617301 1.6270001
-0.24779937 -0.44617301 1.6270001
-0.24341872 -0.44589877 1.626
-0.23933749 -0.44617301 1.6270001
-0.23496205 -0.44589877 1.626
-0.23059183 -0.44562456 1.6250001
-0.2265054 -0.44589877 1.626
-0.22200365 -0.44535032 1.6240001
-0.21764642 -0.44507608 1.623
-0.2132944 -0.44480187 1.6220001
-0.20894754 -0.44452763 1.6210001
-0.20447962 -0.44397917 1.6190001
-0.19989839 -0.44315648 1.6160001
-0.19545387 -0.44260803 1.6140001
-0.19113824 -0.44233379 1.613
-0.18682782 -0.44205958 1.6120001
-0.18252259 -0.44178531 1.6110001
-0.17833325 -0.44178531 1.6110001
-0.17371155 -0.4406884 1.6070001
-0.17069308 -0.44370493 1.618
-0.16658846 -0.44397917 1.6190001
-0.16247863 -0.44425341 1.6200001
-0.15836358 -0.44452763 1.6210001
-0.15424335 -0.44480187 1.6220001
-0.15002541 -0.44480187 1.6220001
-0.14589737 -0.44507608 1.623
-0.14176413 -0.44535032 1.6240001
-0.13762569 -0.44562456 1.6250001
-0.13339998 -0.44562456 1.6250001
-0.12917423 -0.44562456 1.6250001
-0.12494851 -0.44562456 1.6250001
-0.11975699 -0.44205958 1.6120001
-0.11549336 -0.44178531 1.6110001
-0.11123496 -0.44151112 1.6100001
-0.10691524 -0.44096261 1.608
-0.10266984 -0.4406884 1.6070001
-0.098368324 -0.44013992 1.605
-0.094077229 -0.43959147 1.603
-0.089740448 -0.43876877 1.6
-0.085472748 -0.43822032 1.598
-0.081826091 -0.44096261 1.608
-0.077596284 -0.4406884 1.6070001
-0.073371679 -0.44041416 1.6060001
-0.069152266 -0.44013992 1.605
-0.065019026 -0.44041416 1.6060001
-0.060880587 -0.4406884 1.6070001
-0.056736946 -0.44096261 1.608
-0.052620791 -0.44151112 1.6100001
-0.048494231 -0.44205958 1.6120001
-0.04435727 -0.44260803 1.6140001
-0.040234786 -0.44343072 1.6170001
-0.036074422 -0.44397917 1.6190001
-0.031903654 -0.44452763 1.6210001
-0.027722485 -0.44507608 1.623
-0.023516433 -0.44535032 1.6240001
-0.019293301 -0.44535032 1.6240001
-0.01507017 -0.44535032 1.6240001
-0.010847038 -0.44535032 1.6240001
-0.0066239047 -0.44535032 1.6240001
-0.0024007722 -0.44535032 1.6240001
0.0018212377 -0.44507608 1.623
0.0060380474 -0.44480187 1.6220001
0.010243333 -0.44425341 1.6200001
0.014438216 -0.44370493 1.618
0.018495934 -0.44013992 1.605
0.022697907 -0.4406884 1.6070001
0.026876831 -0.4406884 1.6070001
0.031055758 -0.4406884 1.6070001
0.035212755 -0.44041416 1.6060001
0.03936455 -0.44013992 1.605
0.043673914 -0.44151112 1.6100001
0.047890361 -0.44178531 1.6110001
0.051659428 -0.43822032 1.598
0.05571017 -0.43739763 1.595
0.059782833 -0.43684918 1.5930001
0.063845091 -0.43630072 1.5910001
0.067896947 -0.43575227 1.5890001
0.071983732 -0.43547803 1.5880001
0.076065324 -0.43520382 1.5870001
0.080091178 -0.43465531 1.585
0.084212892 -0.43465531 1.585
0.088278875 -0.4343811 1.5840001
0.092397988 -0.4343811 1.5840001
0.096517108 -0.4343811 1.5840001
0.10057268 -0.43410686 1.5830001
0.10462306 -0.43383262 1.582
0.10866825 -0.4335584 1.5810001
0.11263689 -0.43300995 1.5790001
0.11659513 -0.43246147 1.577
0.12061951 -0.43218726 1.5760001
0.12455956 -0.43163881 1.5740001
0.12922481 -0.4335584 1.5810001
0.13291444 -0.43218726 1.5760001
0.13657807 -0.43081611 1.5710001
0.14039476 -0.42999342 1.5680001
0.1435509 -0.4272511 1.5580001
0.14741291 -0.42670265 1.5560001
0.15136188 -0.42642841 1.5550001
0.15570539 -0.4272511 1.5580001
0.15955183 -0.42670265 1.5560001
0.16349299 -0.42642841 1.5550001
0.16742894 -0.42615417 1.554
0.1713597 -0.42587996 1.5530001
0.17528525 -0.42560571 1.552
0.17920563 -0.4253315 1.5510001
0.18312079 -0.42505726 1.5500001
0.18690999 -0.42450881 1.5480001
0.19081214 -0.42423457 1.5470001
0.19470909 -0.42396036 1.5460001
0.19847229 -0.42341188 1.544
0.20078252 -0.41984686 1.531
0.20422883 -0.41874996 1.5270001
0.20765434 -0.41765305 1.5230001
0.21105905 -0.41655612 1.5190001
0.21458448 -0.41573343 1.516
0.21795018 -0.41463652 1.5120001
0.22144184 -0.4138138 1.5090001
0.22506721 -0.41326535 1.5070001
0.22883412 -0.41299111 1.506
0.23259586 -0.4127169 1.5050001
0.23650956 -0.4127169 1.5050001
0.24042323 -0.4127169 1.5050001
0.24482393 -0.41353956 1.508
0.24924028 -0.41436225 1.511
0.25367221 -0.41518497 1.5140001
0.25811976 -0.41600767 1.5170001
0.2625829 -0.41683036 1.5200001
0.26811376 -0.41929841 1.529
0.27244574 -0.41984686 1.531
0.27642703 -0.41984686 1.531
0.28077465 -0.42039534 1.5330001
0.28476113 -0.42039534 1.5330001
0.28893596 -0.42066956 1.534
0.29292506 -0.42066956 1.534
0.29710773 -0.4209438 1.5350001
0.30109939 -0.4209438 1.5350001
0.30469361 -0.42039534 1.5330001
0.30868009 -0.42039534 1.5330001
0.31409428 -0.42231497 1.5400001
0.31809896 -0.42231497 1.5400001
0.32210365 -0.42231497 1.5400001
0.32610834 -0.42231497 1.5400001
0.33011305 -0.42231497 1.5400001
0.33151424 -0.4190242 1.5280001
0.33592683 -0.41957265 1.5300001
0.34034982 -0.4201211 1.5320001
0.34523278 -0.42121801 1.536
0.35013652 -0.42231497 1.5400001
0.35529101 -0.42368612 1.5450001
0.36023894 -0.42478302 1.549
0.36544287 -0.42615417 1.554
0.37019727 -0.42697686 1.557
0.3792938 -0.43273571 1.5780001
0.38509807 -0.43465531 1.585
0.39069316 -0.43630072 1.5910001
0.39681581 -0.43849456 1.5990001
0.40122467 -0.43876877 1.6
0.41273302 -0.44672146 1.6290001
0.42976752 -0.46043301 1.6790001
0.45016477 -0.47743529 1.7410001
0.50986296 -0.53008753 1.9330001
0.62024152 -0.63237548 2.306
0.62515193 -0.63127857 2.302
0.6456691 -0.64581281 2.355
0.66452461 -0.65842742 2.401
0.67160636 -0.65925008 2.404
0.67813993 -0.65952438 2.4050002
0.6821174 -0.65733045 2.3970001
0.69897598 -0.66747701 2.434
0.70559531 -0.66775125 2.4350002
0.70988083 -0.66583169 2.4280002
0.72002935 -0.66939664 2.4410002
0.72697216 -0.66994506 2.4430001
0.73362523 -0.6702193 2.444
0.73967797 -0.66994506 2.4430001
0.74542016 -0.66939664 2.4410002
0.75115192 -0.66884816 2.4390001
0.75656265 -0.66802549 2.4360001
0.76164466 -0.66692859 2.4320002
0.76733744 -0.66638011 2.4300001
0.77301973 -0.66583169 2.4280002
0.77901262 -0.66555738 2.427
0.78532398 -0.66555738 2.427
0.78967816 -0.663912 2.421
0.79827535 -0.66583169 2.4280002
0.80260092 -0.6641863 2.4220002
0.81090313 -0.66583169 2.4280002
0.81889993 -0.66720277 2.4330001
0.82692271 -0.66857398 2.4380002
0.83565509 -0.67049354 2.4450002
0.8433907 -0.67159051 2.4490001
0.8504532 -0.67213899 2.4510002
0.857526 -0.67268741 2.4530001
0.86390495 -0.67268741 2.4530001
0.86567163 -0.6691224 2.4400001
0.87058723 -0.66802549 2.4360001
0.87548202 -0.66692859 2.4320002
0.88071853 -0.66610587 2.4290001
0.88959134 -0.66802549 2.4360001
0.88305354 -0.65842742 2.401
0.88818598 -0.65760469 2.398
0.89292997 -0.65650779 2.3940001
0.89802873 -0.65568507 2.391
0.90311176 -0.6548624 2.388
0.90894091 -0.65458816 2.3870001
0.91936541 -0.65760469 2.398
0.92405736 -0.65650779 2.3940001
0.92950577 -0.65595937 2.3920002
0.93533474 -0.65568507 2.391
0.94234002 -0.65623355 2.3930001
0.94856292 -0.65623355 2.3930001
0.95518476 -0.65650779 2.3940001
0.9618119 -0.65678203 2.3950002
0.96803999 -0.65678203 2.3950002
0.97589517 -0.65787899 2.3990002
0.98254305 -0.65815318 2.4000001
0.99084419 -0.65952438 2.4050002
0.99709821 -0.65952438 2.4050002
1.0033523 -0.65952438 2.4050002
1.0096065 -0.65952438 2.4050002
1.0141708 -0.65842742 2.401
1.0195646 -0.65787899 2.3990002
1.0253755 -0.65760469 2.398
1.0273093 -0.6548624 2.388
1.0330864 -0.65458816 2.3870001
1.0384229 -0.65403974 2.3850002
1.043749 -0.65349126 2.3830001
1.0495054 -0.65321708 2.3820002
1.0548131 -0.6526686 2.3800001
1.0605564 -0.65239435 2.3790002
1.0667429 -0.65239435 2.3790002
1.0724783 -0.65212011 2.378
1.0786622 -0.65212011 2.378
1.0843899 -0.65184587 2.3770001
1.0905712 -0.65184587 2.3770001
1.1013665 -0.65458816 2.3870001
1.1029338 -0.65184587 2.3770001
1.1147143 -0.65513664 2.3890002
1.1195191 -0.65431398 2.3860002
1.1219493 -0.65212011 2.378
1.1267099 -0.65129739 2.375
1.1319321 -0.65074897 2.3730001
1.1376234 -0.65047479 2.3720002
1.1437917 -0.65047479 2.3720002
1.1499599 -0.65047479 2.3720002
-0.90599644 -0.44520161 1.6390001
-0.90173435 -0.44520161 1.6390001
-0.89747214 -0.44520161 1.6390001
-0.89320999 -0.44520161 1.6390001
-0.8889479 -0.44520161 1.6390001
-0.88522553 -0.44547325 1.6400001
-0.88042361 -0.44520161 1.6390001
-0.87562698 -0.44493002 1.6380001
-0.87083536 -0.44465837 1.6370001
-0.86604905 -0.44438672 1.636
-0.86126804 -0.4441151 1.6350001
-0.85596788 -0.44357187 1.6330001
-0.85172141 -0.44357187 1.6330001
-0.84643692 -0.44302857 1.631
-0.84167916 -0.44275695 1.6300001
-0.83744049 -0.44275695 1.6300001
-0.8326906 -0.44248533 1.6290001
-0.82845438 -0.44248533 1.6290001
-0.82472426 -0.44275695 1.6300001
-0.82048553 -0.44275695 1.6300001
-0.81624675 -0.44275695 1.6300001
-0.81150985 -0.44248533 1.6290001
-0.80677813 -0.44221368 1.628
-0.80205172 -0.44194207 1.6270001
-0.79684001 -0.4413988 1.6250001
-0.79115099 -0.44058391 1.6220001
-0.78014076 -0.43678108 1.608
-0.77402902 -0.43569458 1.6040001
-0.76841801 -0.43487969 1.6010001
-0.76282263 -0.43406478 1.598
-0.7572428 -0.43324989 1.595
-0.75262296 -0.43297827 1.5940001
-0.74753875 -0.43243504 1.5920001
-0.74293178 -0.43216339 1.5910001
-0.73833013 -0.43189174 1.59
-0.73373365 -0.43162012 1.5890001
-0.7300607 -0.43189174 1.59
-0.72592598 -0.43189174 1.59
-0.72179127 -0.43189174 1.59
-0.71765649 -0.43189174 1.59
-0.7139706 -0.43216339 1.5910001
-0.70938712 -0.43189174 1.59
-0.70525235 -0.43189174 1.59
-0.70155865 -0.43216339 1.5910001
-0.69742131 -0.43216339 1.5910001
-0.69328398 -0.43216339 1.5910001
-0.68957984 -0.43243504 1.5920001
-0.68587047 -0.43270662 1.5930001
-0.68215591 -0.43297827 1.5940001
-0.6792869 -0.43379319 1.5970001
-0.67640215 -0.43460804 1.6
-0.67350185 -0.43542293 1.603
-0.67100364 -0.43650946 1.6070001
-0.67014426 -0.43868253 1.6150001
-0.66676927 -0.43922576 1.6170001
-0.66420329 -0.44031227 1.6210001
-0.66039515 -0.44058391 1.6220001
-0.65658176 -0.44085553 1.623
-0.65276313 -0.44112718 1.6240001
-0.64854002 -0.44112718 1.6240001
-0.64392012 -0.44085553 1.623
-0.63969958 -0.44085553 1.623
-0.63469595 -0.44031227 1.6210001
-0.62775803 -0.43841088 1.6140001
-0.62278825 -0.43786761 1.6120001
-0.61821252 -0.43759596 1.6110001
-0.61554784 -0.43868253 1.6150001
-0.61021245 -0.43786761 1.6120001
-0.6052686 -0.43732437 1.6100001
-0.60070854 -0.43705273 1.6090001
-0.59578294 -0.43650946 1.6070001
-0.5908677 -0.43596619 1.605
-0.58632851 -0.43569458 1.6040001
-0.58215737 -0.43569458 1.6040001
-0.57762587 -0.43542293 1.603
-0.57345736 -0.43542293 1.603
-0.56928879 -0.43542293 1.603
-0.56512034 -0.43542293 1.603
-0.56060189 -0.43515131 1.6020001
-0.55678326 -0.43542293 1.603
-0.5533042 -0.43596619 1.605
-0.54981476 -0.43650946 1.6070001
-0.54665446 -0.43732437 1.6100001
-0.54347855 -0.43813923 1.613
-0.54062134 -0.43922576 1.6170001
-0.53741163 -0.44004068 1.6200001
-0.53451544 -0.44112718 1.6240001
-0.53159845 -0.44221368 1.628
-0.52866066 -0.44330022 1.6320001
-0.52538073 -0.4441151 1.6350001
-0.52144772 -0.44438672 1.636
-0.51719332 -0.44438672 1.636
-0.51325256 -0.44465837 1.6370001
-0.50899565 -0.44465837 1.6370001
-0.50443035 -0.44438672 1.636
-0.50048178 -0.44465837 1.6370001
-0.49592167 -0.44438672 1.636
-0.49106631 -0.44384345 1.6340001
-0.48651925 -0.44357187 1.6330001
-0.48197734 -0.44330022 1.6320001
-0.47773343 -0.44330022 1.6320001
-0.47290924 -0.44275695 1.6300001
-0.46838295 -0.44248533 1.6290001
-0.46443179 -0.44275695 1.6300001
-0.45991069 -0.44248533 1.6290001
-0.4553948 -0.44221368 1.628
-0.4511613 -0.44221368 1.628
-0.4461042 -0.4413988 1.6250001
-0.44160652 -0.44112718 1.6240001
-0.43738341 -0.44112718 1.6240001
-0.43289351 -0.44085553 1.623
-0.42867297 -0.44085553 1.623
-0.42445248 -0.44085553 1.623
-0.42049086 -0.44112718 1.6240001
-0.41626775 -0.44112718 1.6240001
-0.41179088 -0.44085553 1.623
-0.40757033 -0.44085553 1.623
-0.4031013 -0.44058391 1.6220001
-0.39863744 -0.44031227 1.6210001
-0.39417881 -0.44004068 1.6200001
-0.38948461 -0.43949738 1.618
-0.38480085 -0.43895411 1.6160001
-0.37989196 -0.43813923 1.613
-0.37499869 -0.43732437 1.6100001
-0.37012103 -0.43650946 1.6070001
-0.36525893 -0.43569458 1.6040001
-0.36018732 -0.43460804 1.6
-0.35535908 -0.43379319 1.5970001
-0.35054642 -0.43297827 1.5940001
-0.34596667 -0.43243504 1.5920001
-0.34139729 -0.43189174 1.59
-0.33705047 -0.43162012 1.5890001
-0.33270884 -0.43134847 1.5880001
-0.32857931 -0.43134847 1.5880001
-0.32444981 -0.43134847 1.5880001
-0.32052201 -0.43162012 1.5890001
-0.31678811 -0.43216339 1.5910001
-0.3130438 -0.43270662 1.5930001
-0.30987087 -0.43406478 1.598
-0.30648062 -0.43515131 1.6020001
-0.30288079 -0.43596619 1.605
-0.29963765 -0.43732437 1.6100001
-0.29618496 -0.43841088 1.6140001
-0.29289234 -0.43976903 1.6190001
-0.28939545 -0.44085553 1.623
-0.28570205 -0.44167042 1.626
-0.28181991 -0.44221368 1.628
-0.27980301 -0.44574487 1.641
-0.27570358 -0.44601652 1.6420001
-0.27143365 -0.44601652 1.6420001
-0.26716369 -0.44601652 1.6420001
-0.26289377 -0.44601652 1.6420001
-0.2584663 -0.44574487 1.641
-0.25419894 -0.44574487 1.641
-0.24795166 -0.44221368 1.628
-0.24371813 -0.44221368 1.628
-0.23963168 -0.44248533 1.6290001
-0.23525105 -0.44221368 1.628
-0.23101753 -0.44221368 1.628
-0.22678401 -0.44221368 1.628
-0.22255045 -0.44221368 1.628
-0.21818283 -0.44194207 1.6270001
-0.2138204 -0.44167042 1.626
-0.20946315 -0.4413988 1.6250001
-0.20511113 -0.44112718 1.6240001
-0.20076428 -0.44085553 1.623
-0.19654375 -0.44085553 1.623
-0.19244173 -0.44112718 1.6240001
-0.18798681 -0.44058391 1.6220001
-0.18308908 -0.43895411 1.6160001
-0.17899744 -0.43922576 1.6170001
-0.17436013 -0.43813923 1.613
-0.17132606 -0.44112718 1.6240001
-0.16720584 -0.4413988 1.6250001
-0.16308039 -0.44167042 1.626
-0.15894975 -0.44194207 1.6270001
-0.15481392 -0.44221368 1.628
-0.15058038 -0.44221368 1.628
-0.14643675 -0.44248533 1.6290001
-0.1422879 -0.44275695 1.6300001
-0.13813385 -0.44302857 1.631
-0.13389252 -0.44302857 1.631
-0.12965117 -0.44302857 1.631
-0.12540986 -0.44302857 1.631
-0.12109423 -0.44275695 1.6300001
-0.11678379 -0.44248533 1.6290001
-0.11247857 -0.44221368 1.628
-0.10817855 -0.44194207 1.6270001
-0.10381985 -0.4413988 1.6250001
-0.099471524 -0.44085553 1.623
-0.095133618 -0.44031227 1.6210001
-0.090806112 -0.43976903 1.6190001
-0.086489007 -0.43922576 1.6170001
-0.082182303 -0.43868253 1.6150001
-0.077934287 -0.43841088 1.6140001
-0.073691472 -0.43813923 1.613
-0.069453865 -0.43786761 1.6120001
-0.065302417 -0.43813923 1.613
-0.061145779 -0.43841088 1.6140001
-0.056983937 -0.43868253 1.6150001
-0.052849576 -0.43922576 1.6170001
-0.04870481 -0.43976903 1.6190001
-0.044522166 -0.44004068 1.6200001
-0.04038408 -0.44085553 1.623
-0.036208116 -0.4413988 1.6250001
-0.032021742 -0.44194207 1.6270001
-0.02780789 -0.44221368 1.628
-0.023588836 -0.44248533 1.6290001
-0.019352702 -0.44248533 1.6290001
-0.015116569 -0.44248533 1.6290001
-0.010880433 -0.44248533 1.6290001
-0.0066442983 -0.44248533 1.6290001
-0.0024081639 -0.44248533 1.6290001
0.0018268485 -0.44221368 1.628
0.0060566603 -0.44194207 1.6270001
0.010281271 -0.44167042 1.626
0.014491756 -0.44112718 1.6240001
0.018588126 -0.43813923 1.613
0.022768529 -0.43786761 1.6120001
0.026960455 -0.43786761 1.6120001
0.031152384 -0.43786761 1.6120001
0.035322383 -0.43759596 1.6110001
0.039462656 -0.43705273 1.6090001
0.043782417 -0.43841088 1.6140001
0.048009273 -0.43868253 1.6150001
0.05178874 -0.43515131 1.6020001
0.055849884 -0.43433642 1.5990001
0.059895419 -0.43352154 1.5960001
0.063965477 -0.43297827 1.5940001
0.068025142 -0.43243504 1.5920001
0.072074391 -0.43189174 1.59
0.076161183 -0.43162012 1.5890001
0.080192246 -0.43107688 1.5870001
0.084266022 -0.43080524 1.5860001
0.088334605 -0.43053359 1.585
0.092456318 -0.43053359 1.585
0.096578039 -0.43053359 1.585
0.10063622 -0.43026197 1.5840001
0.10475533 -0.43026197 1.5840001
0.10880571 -0.42999035 1.5830001
0.11285089 -0.4297187 1.582
0.11681693 -0.42917544 1.58
0.12084912 -0.42890382 1.5790001
0.12479696 -0.42836055 1.577
0.12947002 -0.43026197 1.5840001
0.13325179 -0.42917544 1.58
0.1369258 -0.42781729 1.575
0.14066337 -0.42673078 1.5710001
0.1438273 -0.42401448 1.5610001
0.14769712 -0.42347121 1.559
0.1516539 -0.42319959 1.5580001
0.15610515 -0.4242861 1.562
0.15996198 -0.42374286 1.5600001
0.16391355 -0.42347121 1.559
0.1678599 -0.42319959 1.5580001
0.17169073 -0.42265633 1.5560001
0.17562409 -0.42238471 1.5550001
0.1794367 -0.42184144 1.5530001
0.18347521 -0.42184144 1.5530001
0.18727222 -0.42129821 1.5510001
0.19105883 -0.42075491 1.549
0.19508691 -0.42075491 1.549
0.1987294 -0.41994005 1.5460001
0.20091367 -0.41613722 1.5320001
0.20436259 -0.41505072 1.5280001
0.20765434 -0.41369256 1.5230001
0.21105905 -0.412606 1.5190001
0.21444294 -0.4115195 1.5150001
0.21780603 -0.41043296 1.511
0.22129507 -0.40961808 1.508
0.22491786 -0.40907481 1.506
0.22853023 -0.40853158 1.5040001
0.23228675 -0.40825993 1.503
0.23619525 -0.40825993 1.503
0.24010372 -0.40825993 1.503
0.2443369 -0.40880319 1.5050001
0.24858049 -0.40934646 1.5070001
0.25300202 -0.41016135 1.5100001
0.25743917 -0.41097626 1.5130001
0.2618919 -0.41179112 1.516
0.26793841 -0.41505072 1.5280001
0.27208984 -0.4153223 1.529
0.27624649 -0.41559395 1.5300001
0.28040832 -0.41586557 1.531
0.28476113 -0.41640884 1.5330001
0.28874761 -0.41640884 1.5330001
0.29292506 -0.41668046 1.534
0.29730126 -0.41722372 1.536
0.3007071 -0.41640884 1.5330001
0.30489233 -0.41668046 1.534
0.30888143 -0.41668046 1.534
0.31307447 -0.4169521 1.5350001
0.31706616 -0.4169521 1.5350001
0.32001209 -0.41559395 1.5300001
0.32399076 -0.41559395 1.5300001
0.3281838 -0.41586557 1.531
0.33238208 -0.41613722 1.5320001
0.33680508 -0.41668046 1.534
0.34146065 -0.41749537 1.5370001
0.34613183 -0.41831025 1.5400001
0.35127333 -0.41966841 1.5450001
0.35621086 -0.42075491 1.549
0.36140177 -0.42211306 1.554
0.36661869 -0.42347121 1.559
0.37114832 -0.42401448 1.5610001
0.3800149 -0.42944708 1.5810001
0.38291141 -0.42808893 1.5760001
0.39413106 -0.43596619 1.605
0.39830479 -0.43596619 1.605
0.40072313 -0.43406478 1.598
0.41805372 -0.44818956 1.6500001
0.4374465 -0.46421573 1.7090001
0.45662892 -0.47969863 1.766
0.48655456 -0.50604671 1.863
0.60114479 -0.60709316 2.2350001
0.63221276 -0.63235468 2.3280001
0.64621747 -0.64023197 2.3570001
0.66535497 -0.65299857 2.404
0.67272389 -0.65408516 2.4080002
0.68011367 -0.65517163 2.4120002
0.6926465 -0.66114748 2.434
0.69955033 -0.66169077 2.4360001
0.70414644 -0.66006094 2.4300001
0.71397406 -0.66332054 2.4420002
0.72120923 -0.66413546 2.4450002
0.72786492 -0.66440707 2.4460001
0.73422563 -0.66440707 2.4460001
0.7399807 -0.66386378 2.444
0.74542016 -0.66304892 2.4410002
0.75084394 -0.66223407 2.4380002
0.75625211 -0.66141915 2.4350002
0.76101828 -0.66006094 2.4300001
0.76670593 -0.65951777 2.4280002
0.77206463 -0.65870285 2.4250002
0.77804971 -0.65843117 2.424
0.7843532 -0.65843117 2.424
0.7909829 -0.65870285 2.4250002
0.79400122 -0.65598655 2.4150002
0.80458921 -0.65951777 2.4280002
0.81023514 -0.65897447 2.4260001
0.81822681 -0.66033262 2.4310002
0.82624429 -0.66169077 2.4360001
0.83565509 -0.66413546 2.4450002
0.8433907 -0.66522193 2.4490001
0.85010612 -0.66549355 2.45
0.85717648 -0.66603684 2.4520001
0.86320066 -0.66576523 2.4510002
0.86531687 -0.66250563 2.4390001
0.8702299 -0.66141915 2.4350002
0.87512207 -0.66033262 2.4310002
0.87999332 -0.65924609 2.427
0.88484395 -0.65815955 2.4230001
0.88342136 -0.65245533 2.4020002
0.88818598 -0.6513688 2.398
0.89292997 -0.65028226 2.3940001
0.89765316 -0.64919579 2.3900001
0.90273362 -0.64838088 2.3870001
0.9081794 -0.64783764 2.3850002
0.91783184 -0.65028226 2.3940001
0.92212749 -0.64892417 2.3890002
0.92756277 -0.64838088 2.3870001
0.93377 -0.64838088 2.3870001
0.9415524 -0.64946741 2.391
0.94816655 -0.64973909 2.3920002
0.95478576 -0.65001065 2.3930001
0.96100867 -0.65001065 2.3930001
0.96763575 -0.65028226 2.3940001
0.97508156 -0.65109718 2.3970001
0.98049617 -0.65055394 2.3950002
0.98672426 -0.65055394 2.3950002
0.99585444 -0.65245533 2.4020002
1.0021007 -0.65245533 2.4020002
1.0087668 -0.65272695 2.4030001
1.013326 -0.65164047 2.3990002
1.0187145 -0.65109718 2.3970001
1.0245203 -0.65082556 2.3960001
1.0273093 -0.64865249 2.388
1.0330864 -0.64838088 2.3870001
1.0384229 -0.64783764 2.3850002
1.0441869 -0.64756596 2.3840001
1.049946 -0.64729434 2.3830001
1.0552562 -0.64675111 2.381
1.0610023 -0.64647949 2.3800001
1.0671914 -0.64647949 2.3800001
1.0729294 -0.64620787 2.3790002
1.0791159 -0.64620787 2.3790002
1.0848461 -0.64593619 2.378
1.0956179 -0.64865249 2.388
1.1009051 -0.64810926 2.3860002
1.1033977 -0.64593619 2.378
1.1142476 -0.64865249 2.388
1.1190499 -0.64783764 2.3850002
1.1210058 -0.64539295 2.3760002
1.1257612 -0.6445781 2.3730001
1.130978 -0.6440348 2.3710001
1.1361846 -0.64349157 2.3690002
1.1423451 -0.64349157 2.3690002
1.1485056 -0.64349157 2.3690002
-0.90710199 -0.44147751 1.641
-0.90283465 -0.44147751 1.641
-0.89856726 -0.44147751 1.641
-0.89429992 -0.44147751 1.641
-0.89003265 -0.44147751 1.641
-0.88630503 -0.44174656 1.6420001
-0.88149792 -0.44147751 1.641
-0.87669611 -0.44120851 1.6400001
-0.87189931 -0.44093946 1.6390001
-0.86710787 -0.44067046 1.6380001
-0.86232156 -0.44040141 1.6370001
-0.85701621 -0.43986335 1.6350001
-0.85224295 -0.43959433 1.6340001
-0.84747487 -0.4393253 1.6330001
-0.84271187 -0.43905625 1.6320001
-0.83795422 -0.43878722 1.631
-0.83371288 -0.43878722 1.631
-0.82998008 -0.43905625 1.6320001
-0.82573617 -0.43905625 1.6320001
-0.82149225 -0.43905625 1.6320001
-0.81724828 -0.43905625 1.6320001
-0.8125062 -0.43878722 1.631
-0.8077693 -0.4385182 1.6300001
-0.80303758 -0.43824917 1.6290001
-0.79831105 -0.43798012 1.628
-0.79212648 -0.43690401 1.6240001
-0.78693306 -0.43636596 1.6220001
-0.77547669 -0.43233052 1.6070001
-0.76985788 -0.43152344 1.6040001
-0.76425469 -0.43071634 1.6010001
-0.75866705 -0.42990926 1.598
-0.75356728 -0.42937121 1.5960001
-0.74847782 -0.42883316 1.5940001
-0.74339879 -0.42829508 1.5920001
-0.73879451 -0.42802605 1.5910001
-0.73373365 -0.427488 1.5890001
-0.72960156 -0.427488 1.5890001
-0.72546947 -0.427488 1.5890001
-0.72133732 -0.427488 1.5890001
-0.71720517 -0.427488 1.5890001
-0.71307313 -0.427488 1.5890001
-0.70849478 -0.42721894 1.5880001
-0.70436525 -0.42721894 1.5880001
-0.70023578 -0.42721894 1.5880001
-0.69610626 -0.42721894 1.5880001
-0.69197673 -0.42721894 1.5880001
-0.68784726 -0.42721894 1.5880001
-0.68414825 -0.427488 1.5890001
-0.68044406 -0.42775699 1.59
-0.67758542 -0.4285641 1.5930001
-0.67471117 -0.42937121 1.5960001
-0.6718213 -0.43017828 1.5990001
-0.6693334 -0.43125439 1.603
-0.66931432 -0.43394467 1.613
-0.66553223 -0.43421373 1.6140001
-0.66297406 -0.43528983 1.618
-0.65958083 -0.43582791 1.6200001
-0.65536815 -0.43582791 1.6200001
-0.65155733 -0.43609694 1.6210001
-0.64774132 -0.43636596 1.6220001
-0.6435234 -0.43636596 1.6220001
-0.63930547 -0.43636596 1.6220001
-0.63430446 -0.43582791 1.6200001
-0.63009173 -0.43582791 1.6200001
-0.62510628 -0.43528983 1.618
-0.61821252 -0.43340662 1.6110001
-0.61631012 -0.43502083 1.6170001
-0.61059093 -0.43394467 1.613
-0.60602051 -0.43367568 1.6120001
-0.60108191 -0.43313763 1.6100001
-0.59652442 -0.43286857 1.6090001
-0.59197211 -0.43259954 1.608
-0.58705956 -0.43206149 1.6060001
-0.58252025 -0.43179244 1.605
-0.57834655 -0.43179244 1.605
-0.57417285 -0.43179244 1.605
-0.5699991 -0.43179244 1.605
-0.5658254 -0.43179244 1.605
-0.56165165 -0.43179244 1.605
-0.55747789 -0.43179244 1.605
-0.5539937 -0.43233052 1.6070001
-0.55049908 -0.43286857 1.6090001
-0.54699397 -0.43340662 1.6110001
-0.54381549 -0.43421373 1.6140001
-0.54062134 -0.43502083 1.6170001
-0.53774333 -0.43609694 1.6210001
-0.53451544 -0.43690401 1.6240001
-0.53159845 -0.43798012 1.628
-0.52866066 -0.43905625 1.6320001
-0.52538073 -0.43986335 1.6350001
-0.52144772 -0.44013238 1.636
-0.51750952 -0.44040141 1.6370001
-0.51356614 -0.44067046 1.6380001
-0.50930655 -0.44067046 1.6380001
-0.50473875 -0.44040141 1.6370001
-0.50048178 -0.44040141 1.6370001
-0.49592167 -0.44013238 1.636
-0.49136686 -0.43986335 1.6350001
-0.48711509 -0.43986335 1.6350001
-0.48227268 -0.4393253 1.6330001
-0.47802618 -0.4393253 1.6330001
-0.47348949 -0.43905625 1.6320001
-0.46895799 -0.43878722 1.631
-0.46443179 -0.4385182 1.6300001
-0.45991069 -0.43824917 1.6290001
-0.45511511 -0.43771112 1.6270001
-0.45088419 -0.43771112 1.6270001
-0.44665325 -0.43771112 1.6270001
-0.44215035 -0.43744206 1.626
-0.43792206 -0.43744206 1.626
-0.43342701 -0.43717307 1.6250001
-0.42920125 -0.43717307 1.6250001
-0.42523706 -0.43744206 1.626
-0.42100871 -0.43744206 1.626
-0.41678041 -0.43744206 1.626
-0.41229835 -0.43717307 1.6250001
-0.40807259 -0.43717307 1.6250001
-0.40409538 -0.43744206 1.626
-0.3993752 -0.43690401 1.6240001
-0.39490876 -0.43663499 1.623
-0.3904475 -0.43636596 1.6220001
-0.38575336 -0.43582791 1.6200001
-0.38083407 -0.43502083 1.6170001
-0.37593037 -0.43421373 1.6140001
-0.37104228 -0.43340662 1.6110001
-0.36594209 -0.43233052 1.6070001
-0.3610878 -0.43152344 1.6040001
-0.35602662 -0.43044731 1.6
-0.35120615 -0.42964023 1.5970001
-0.3464013 -0.42883316 1.5940001
-0.34182674 -0.42829508 1.5920001
-0.3374747 -0.42802605 1.5910001
-0.33312786 -0.42775699 1.59
-0.32899314 -0.42775699 1.59
-0.32485843 -0.42775699 1.59
-0.32092544 -0.42802605 1.5910001
-0.31718633 -0.4285641 1.5930001
-0.31343684 -0.42910215 1.595
-0.31006479 -0.43017828 1.5990001
-0.30648062 -0.43098539 1.6020001
-0.30288079 -0.43179244 1.605
-0.29963765 -0.43313763 1.6100001
-0.29618496 -0.43421373 1.6140001
-0.29289234 -0.43555889 1.6190001
-0.28921714 -0.43636596 1.6220001
-0.28552637 -0.43717307 1.6250001
-0.28164682 -0.43771112 1.6270001
-0.27980301 -0.44147751 1.641
-0.27570358 -0.44174656 1.6420001
-0.27143365 -0.44174656 1.6420001
-0.26716369 -0.44174656 1.6420001
-0.26289377 -0.44174656 1.6420001
-0.25862381 -0.44174656 1.6420001
-0.25435385 -0.44174656 1.6420001
-0.24810396 -0.43824917 1.6290001
-0.24401756 -0.4385182 1.6300001
-0.2397788 -0.4385182 1.6300001
-0.23554008 -0.4385182 1.6300001
-0.23144324 -0.43878722 1.631
-0.22720191 -0.43878722 1.631
-0.22296056 -0.43878722 1.631
-0.21871923 -0.43878722 1.631
-0.21434641 -0.4385182 1.6300001
-0.20997874 -0.43824917 1.6290001
-0.20561631 -0.43798012 1.628
-0.20150648 -0.43824917 1.6290001
-0.19714925 -0.43798012 1.628
-0.19267872 -0.43744206 1.626
-0.18833451 -0.43717307 1.6250001
-0.18376887 -0.43636596 1.6220001
-0.17944023 -0.43609694 1.6210001
-0.17500871 -0.43555889 1.6190001
-0.17195904 -0.4385182 1.6300001
-0.16782321 -0.43878722 1.631
-0.16368216 -0.43905625 1.6320001
-0.15953593 -0.4393253 1.6330001
-0.1552894 -0.4393253 1.6330001
-0.15113534 -0.43959433 1.6340001
-0.14697611 -0.43986335 1.6350001
-0.14281166 -0.44013238 1.636
-0.13855731 -0.44013238 1.636
-0.13430299 -0.44013238 1.636
-0.13004863 -0.44013238 1.636
-0.12579431 -0.44013238 1.636
-0.12153997 -0.44013238 1.636
-0.11721394 -0.43986335 1.6350001
-0.11289311 -0.43959433 1.6340001
-0.10857749 -0.4393253 1.6330001
-0.10420317 -0.43878722 1.631
-0.099839263 -0.43824917 1.6290001
-0.095544435 -0.43798012 1.628
-0.091198727 -0.43744206 1.626
-0.086863413 -0.43690401 1.6240001
-0.082538515 -0.43636596 1.6220001
-0.078272298 -0.43609694 1.6210001
-0.074011281 -0.43582791 1.6200001
-0.069755465 -0.43555889 1.6190001
-0.065585814 -0.43582791 1.6200001
-0.061410971 -0.43609694 1.6210001
-0.057195641 -0.43609694 1.6210001
-0.053045675 -0.43663499 1.623
-0.048885312 -0.43717307 1.6250001
-0.044687063 -0.43744206 1.626
-0.04050849 -0.43798012 1.628
-0.036319524 -0.4385182 1.6300001
-0.03212015 -0.43905625 1.6320001
-0.027893297 -0.4393253 1.6330001
-0.023646759 -0.4393253 1.6330001
-0.019400222 -0.4393253 1.6330001
-0.015153687 -0.4393253 1.6330001
-0.010907151 -0.4393253 1.6330001
-0.0066606137 -0.4393253 1.6330001
-0.0024140771 -0.4393253 1.6330001
0.0018324592 -0.4393253 1.6330001
0.0060752733 -0.43905625 1.6320001
0.010312886 -0.43878722 1.631
0.014429293 -0.43502083 1.6170001
0.018645745 -0.43528983 1.618
0.022853276 -0.43528983 1.618
0.027060803 -0.43528983 1.618
0.031249011 -0.43502083 1.6170001
0.035410088 -0.43448278 1.6150001
0.039585289 -0.43421373 1.6140001
0.043918051 -0.43555889 1.6190001
0.048157908 -0.43582791 1.6200001
0.051918048 -0.43206149 1.6060001
0.055989593 -0.43125439 1.603
0.060045529 -0.43044731 1.6
0.064085864 -0.42964023 1.5970001
0.068153322 -0.42910215 1.595
0.072165057 -0.42829508 1.5920001
0.07625705 -0.42802605 1.5910001
0.080293305 -0.427488 1.5890001
0.084372282 -0.42721894 1.5880001
0.088446073 -0.42694995 1.5870001
0.092514649 -0.42668089 1.5860001
0.09663897 -0.42668089 1.5860001
0.10076328 -0.42668089 1.5860001
0.10488759 -0.42668089 1.5860001
0.10894318 -0.42641187 1.585
0.11306489 -0.42641187 1.585
0.11703873 -0.42587382 1.5830001
0.12107871 -0.42560476 1.582
0.1251135 -0.42533576 1.5810001
0.12979697 -0.42721894 1.5880001
0.13358913 -0.42614284 1.5840001
0.13727356 -0.42479771 1.5790001
0.14102152 -0.42372155 1.575
0.14419585 -0.42103127 1.5650001
0.14807609 -0.42049322 1.5630001
0.15204325 -0.42022419 1.562
0.15610515 -0.42022419 1.562
0.16037214 -0.42076227 1.5640001
0.1643341 -0.42049322 1.5630001
0.16829087 -0.42022419 1.562
0.17213209 -0.41968614 1.5600001
0.17607585 -0.41941708 1.559
0.17989887 -0.41887903 1.557
0.18382964 -0.41861004 1.5560001
0.18775518 -0.41834098 1.5550001
0.19155221 -0.41780293 1.5530001
0.19546475 -0.41753387 1.552
0.19770104 -0.41376749 1.5380001
0.20117596 -0.41269135 1.534
0.20463006 -0.41161525 1.5300001
0.20792702 -0.41027009 1.5250001
0.211198 -0.40892497 1.5200001
0.21458448 -0.40784881 1.516
0.21795018 -0.4067727 1.5120001
0.22144184 -0.40596563 1.5090001
0.22491786 -0.40515852 1.506
0.22853023 -0.40462047 1.5040001
0.23228675 -0.40435144 1.503
0.2360381 -0.40408242 1.5020001
0.23994398 -0.40408242 1.5020001
0.24417454 -0.40462047 1.5040001
0.24841553 -0.40515852 1.506
0.25266689 -0.40569657 1.508
0.25709882 -0.40650368 1.511
0.2615464 -0.40731075 1.5140001
0.26600954 -0.40811786 1.5170001
0.27226779 -0.41161525 1.5300001
0.27624649 -0.41161525 1.5300001
0.28040832 -0.41188425 1.531
0.28494686 -0.41269135 1.534
0.28912431 -0.41296038 1.5350001
0.29330698 -0.41322941 1.536
0.29730126 -0.41322941 1.536
0.30090323 -0.41269135 1.534
0.30489233 -0.41269135 1.534
0.30928415 -0.41322941 1.536
0.31327844 -0.41322941 1.536
0.31768584 -0.41376749 1.5380001
0.32210365 -0.41430554 1.5400001
0.3248378 -0.41269135 1.534
0.32904124 -0.41296038 1.5350001
0.3332499 -0.41322941 1.536
0.33790287 -0.41403651 1.539
0.34234929 -0.41457459 1.5410001
0.34725565 -0.4156507 1.5450001
0.35241014 -0.41699582 1.5500001
0.35759065 -0.41834098 1.5550001
0.36256456 -0.41941708 1.559
0.36755934 -0.42049322 1.5630001
0.37209937 -0.42103127 1.5650001
0.38722581 -0.43340662 1.6110001
0.39092922 -0.43286857 1.6090001
0.39560446 -0.43340662 1.6110001
0.39954564 -0.43313763 1.6100001
0.40323079 -0.43259954 1.608
0.4218542 -0.44793424 1.6650001
0.44461355 -0.46730438 1.7370001
0.52990931 -0.54048038 2.0090001
0.56842959 -0.57410908 2.1340001
0.61244154 -0.61258036 2.2770002
0.640903 -0.63490981 2.3600001
0.64649165 -0.6343717 2.358
0.66618526 -0.64755416 2.4070001
0.67356193 -0.64863026 2.411
0.68293339 -0.65158963 2.4220002
0.69150823 -0.65374184 2.4300001
0.69782728 -0.65374184 2.4300001
0.7082032 -0.65750825 2.444
0.7151435 -0.65804631 2.4460001
0.72209412 -0.65858442 2.4480002
0.72846007 -0.65858442 2.4480002
0.7345258 -0.65831536 2.447
0.7399807 -0.65750825 2.444
0.74511474 -0.65643215 2.4400001
0.75022799 -0.65535605 2.4360001
0.75532037 -0.65427995 2.4320002
0.76007879 -0.65293473 2.427
0.76544273 -0.65212768 2.424
0.77079105 -0.65132058 2.421
0.77676582 -0.65105152 2.4200001
0.78305894 -0.65105152 2.4200001
0.78967816 -0.65132058 2.421
0.79268605 -0.64863026 2.411
0.80028129 -0.64970642 2.4150002
0.80923319 -0.65185863 2.4230001
0.8195731 -0.65508699 2.4350002
0.82624429 -0.65535605 2.4360001
0.83462971 -0.6569702 2.4420002
0.84132445 -0.65723926 2.4430001
0.84802425 -0.65750825 2.444
0.85472941 -0.65777731 2.4450002
0.8610875 -0.65777731 2.4450002
0.86460727 -0.65562505 2.437
0.86951506 -0.65454894 2.4330001
0.87404209 -0.65320385 2.4280002
0.87854302 -0.65185863 2.4230001
0.88301802 -0.65051353 2.4180002
0.88378912 -0.64647806 2.4030001
0.89040834 -0.64674705 2.404
0.89479494 -0.64540195 2.3990002
0.8991555 -0.6440568 2.3940001
0.9038682 -0.64298069 2.3900001
0.90703702 -0.64082849 2.3820002
0.91668165 -0.64324969 2.391
0.92058355 -0.64163554 2.3850002
0.9260084 -0.64109749 2.3830001
0.93181407 -0.64082849 2.3820002
0.93840212 -0.64109749 2.3830001
0.94777012 -0.64324969 2.391
0.95438683 -0.64351875 2.3920002
0.96060711 -0.64351875 2.3920002
0.96723157 -0.64378774 2.3930001
0.97467482 -0.64459485 2.3960001
0.97967732 -0.64378774 2.3930001
0.98590022 -0.64378774 2.3930001
0.99543977 -0.64593995 2.401
1.0016835 -0.64593995 2.401
1.008347 -0.64620906 2.4020002
1.0150156 -0.64647806 2.4030001
1.0182896 -0.64459485 2.3960001
1.0240928 -0.64432585 2.3950002
1.0277395 -0.64271164 2.3890002
1.0335191 -0.64244258 2.388
1.0427769 -0.64432585 2.3950002
1.0485669 -0.6440568 2.3940001
1.0552331 -0.64432585 2.3950002
1.0565859 -0.64136648 2.3840001
1.0623397 -0.64109749 2.3830001
1.0680882 -0.64082849 2.3820002
1.0738313 -0.64055938 2.381
1.0850127 -0.64351875 2.3920002
1.0903206 -0.64298069 2.3900001
1.0951592 -0.64217359 2.3870001
1.0999823 -0.64136648 2.3840001
1.1085018 -0.64271164 2.3890002
1.1133144 -0.64190459 2.3860002
1.1181115 -0.64109749 2.3830001
1.1214776 -0.63948327 2.3770001
1.1229148 -0.63679302 2.3670001
1.1276391 -0.63598591 2.3640001
1.1357049 -0.63706201 2.368
1.1418628 -0.63706201 2.368
1.1480206 -0.63706201 2.368
-0.90765476 -0.43747663 1.6420001
-0.90338486 -0.43747663 1.6420001
-0.89911485 -0.43747663 1.6420001
-0.89538997 -0.4377431 1.6430001
-0.89111745 -0.4377431 1.6430001
-0.88738459 -0.4380095 1.6440001
-0.88257235 -0.4377431 1.6430001
-0.87776524 -0.43747663 1.6420001
-0.87296319 -0.4372102 1.641
-0.86816657 -0.4369438 1.6400001
-0.86337507 -0.43667737 1.6390001
-0.85806453 -0.4361445 1.6370001
-0.85328603 -0.43587807 1.636
-0.84799379 -0.4353452 1.6340001
-0.84322828 -0.4350788 1.6330001
-0.83898181 -0.4350788 1.6330001
-0.83524638 -0.4353452 1.6340001
-0.83099723 -0.4353452 1.6340001
-0.82674807 -0.4353452 1.6340001
-0.82249898 -0.4353452 1.6340001
-0.81824976 -0.4353452 1.6340001
-0.81400067 -0.4353452 1.6340001
-0.80925602 -0.4350788 1.6330001
-0.8040235 -0.4345459 1.631
-0.79929185 -0.4342795 1.6300001
-0.79358977 -0.4334802 1.6270001
-0.78838861 -0.43294737 1.6250001
-0.77692443 -0.42895094 1.6100001
-0.77129775 -0.42815164 1.6070001
