# .PCD v0.7 - Point Cloud Data file format
VERSION 0.7
FIELDS x y z
SIZE 4 4 4
TYPE F F F
COUNT 1 1 1
WIDTH 1536
HEIGHT 1
VIEWPOINT 0 0 0 1 0 0 0
POINTS 1536
DATA ascii
-0.79108107 0.68954587 3.0610001
-0.78311932 0.68954587 3.0610001
-0.77465105 0.68909532 3.0590003
-0.76619321 0.68864477 3.0570002
-0.75749773 0.68796897 3.0540001
-0.74857247 0.68706793 3.0500002
-0.73675394 0.68346363 3.0340002
-0.7310245 0.68549103 3.0430002
-0.72263432 0.68504047 3.0410001
-0.70743865 0.67805719 3.0100002
-0.69937706 0.67783189 3.0090001
-0.69109094 0.6773814 3.0070002
-0.68304235 0.67715609 3.006
-0.67522365 0.67715609 3.006
-0.66740489 0.67715609 3.006
-0.42597753 0.47081047 2.0900002
-0.25326803 0.46315134 2.056
-0.2463527 0.46022284 2.043
-0.24127477 0.46067339 2.0450001
-0.23607101 0.46089864 2.046
-0.23097487 0.46134919 2.0480001
-0.2264192 0.46292606 2.0550001
-0.21967553 0.45999759 2.0420001
-0.21394432 0.45909652 2.0380001
-0.20833628 0.45842072 2.0350001
-0.20284361 0.45797017 2.033
-0.19745852 0.4577449 2.0320001
-0.19217321 0.4577449 2.0320001
-0.18688792 0.4577449 2.0320001
-0.1816026 0.4577449 2.0320001
-0.17631729 0.4577449 2.0320001
-0.171032 0.4577449 2.0320001
-0.16574669 0.4577449 2.0320001
-0.16054033 0.45797017 2.033
-0.1548706 0.45684385 2.0280001
-0.15070218 0.46022284 2.043
-0.14531708 0.45999759 2.0420001
-0.14096566 0.46315134 2.056
-0.13476041 0.46022284 2.043
-0.12944651 0.46022284 2.043
-0.12474019 0.46247557 2.0530002
-0.11887682 0.46044815 2.0440001
-0.11367141 0.46089864 2.046
-0.10803196 0.45954707 2.0400002
-0.10257477 0.45887128 2.0370002
-0.097085439 0.45797017 2.033
-0.091797523 0.45797017 2.033
-0.086381972 0.4572944 2.0300002
-0.08094205 0.4563933 2.026
-0.075635001 0.45616803 2.0250001
-0.070333153 0.45594278 2.0240002
-0.065036498 0.45571747 2.023
-0.059774604 0.45571747 2.023
-0.054512706 0.45571747 2.023
-0.049275156 0.45594278 2.0240002
-0.044010654 0.45594278 2.0240002
-0.038746156 0.45594278 2.0240002
-0.033514738 0.4563933 2.026
-0.028245039 0.4563933 2.026
-0.02298668 0.45661861 2.0270002
-0.017714376 0.45661861 2.0270002
-0.012442074 0.45661861 2.0270002
-0.0071662343 0.4563933 2.026
-0.0018946608 0.45594278 2.0240002
0.0033665088 0.45549223 2.0220001
0.0086130081 0.45481643 2.0190001
0.013850768 0.45436591 2.0170002
0.019059187 0.45346481 2.013
0.024283007 0.45323956 2.0120001
0.029516293 0.45323956 2.0120001
0.034732312 0.45301428 2.0110002
0.040002737 0.45346481 2.013
0.045306046 0.4541406 2.016
0.050599888 0.45459116 2.0180001
0.056097858 0.45661861 2.0270002
0.062308725 0.46360189 2.0580001
0.067826055 0.46472824 2.0630002
0.074362777 0.4721621 2.0960002
0.080043025 0.47351366 2.102
0.085835852 0.47531584 2.1100001
0.091583729 0.47666746 2.1160002
0.097500466 0.47869483 2.125
0.10322161 0.47959596 2.1290002
0.10896356 0.480497 2.1330001
0.11467262 0.48117283 2.1360002
0.1203973 0.48184863 2.1390002
0.12607868 0.48229912 2.141
0.13177049 0.48274967 2.1430001
0.13753678 0.4834255 2.1460001
0.14331868 0.4841013 2.1490002
0.14911619 0.48477712 2.1520002
0.15500119 0.48567817 2.1560001
0.16090699 0.48657924 2.1600001
0.16683362 0.48748028 2.164
0.17278107 0.48838142 2.1680002
0.17940766 0.49108461 2.1800001
0.18524773 0.49153516 2.1820002
0.19407316 0.49964482 2.2180002
0.19984226 0.49964482 2.2180002
0.20570405 0.49987006 2.2190001
0.21080865 0.49829319 2.2120001
0.21656214 0.49829319 2.2120001
0.22241612 0.49851844 2.2130001
0.22817223 0.49851844 2.2130001
0.23392832 0.49851844 2.2130001
0.23946781 0.49806795 2.2110002
0.24510777 0.49784264 2.21
0.25062907 0.49739212 2.2080002
0.25613993 0.49694157 2.2060001
0.26164037 0.49649101 2.204
0.26676652 0.4953647 2.1990001
0.27075142 0.49221095 2.1850002
0.27618164 0.4917604 2.1830001
0.28173062 0.49153516 2.1820002
0.2871426 0.49108461 2.1800001
0.29200697 0.48973298 2.174
0.29738781 0.48928246 2.1720002
0.30289769 0.48905715 2.171
0.30826035 0.48860666 2.1690001
0.3137573 0.48838142 2.1680002
0.31924897 0.48815611 2.1670001
0.32458562 0.48770559 2.1650002
0.33021683 0.48770559 2.1650002
0.33569294 0.48748028 2.164
0.34132159 0.48748028 2.164
0.34711057 0.48770559 2.1650002
0.35306767 0.48815611 2.1670001
0.35920072 0.48883191 2.1700001
0.36534935 0.48950773 2.1730001
0.37168434 0.49040878 2.177
0.3778668 0.49108461 2.1800001
0.38388893 0.49153516 2.1820002
0.3901 0.49221095 2.1850002
0.40230417 0.50032061 2.2210002
0.4073461 0.49941951 2.217
0.41404432 0.50054586 2.2220001
0.4207685 0.50167221 2.227
0.43288186 0.50910604 2.26
0.43992507 0.51045763 2.266
0.44640923 0.51113343 2.2690001
0.45211166 0.51090819 2.2680001
0.45801082 0.51090819 2.2680001
0.46390995 0.51090819 2.2680001
0.46898055 0.51000714 2.2640002
0.47507903 0.51023239 2.2650001
0.47396284 0.50279856 2.2320001
0.4786936 0.50167221 2.227
0.48187551 0.49896899 2.2150002
0.48763683 0.49896899 2.2150002
0.48961133 0.49513945 2.1980002
0.49600446 0.49581525 2.2010002
0.49853796 0.49266148 2.187
0.50422645 0.49266148 2.187
0.49406022 0.47734326 2.1190002
0.34627876 0.3135733 1.3920001
0.34059891 0.30523837 1.355
0.34463125 0.30568892 1.3570001
0.34174669 0.30005717 1.332
0.34210125 0.29735398 1.3200001
0.34213161 0.29442549 1.307
0.34341624 0.29262334 1.299
0.34385833 0.2901454 1.2880001
0.34559101 0.2887938 1.2820001
0.34756467 0.28766745 1.2770001
0.35006189 0.28699163 1.274
0.35282084 0.2865411 1.2720001
0.35528943 0.28586531 1.2690001
0.35802501 0.28541479 1.2670001
0.36075017 0.28496423 1.2650001
0.36346489 0.28451368 1.263
0.36616927 0.28406316 1.261
0.3688632 0.28361261 1.2590001
0.37154675 0.28316209 1.2570001
0.37481627 0.28316209 1.2570001
0.37808576 0.28316209 1.2570001
0.38165861 0.28338733 1.258
0.38523674 0.28361261 1.2590001
0.38943723 0.28428844 1.2620001
0.39303088 0.28451368 1.263
0.39725739 0.28518948 1.266
0.40118307 0.28564003 1.268
0.40511918 0.28609058 1.2700001
0.4087441 0.28631583 1.271
0.41205001 0.28631583 1.271
0.41535589 0.28631583 1.271
0.41833249 0.28609058 1.2700001
0.42130378 0.28586531 1.2690001
0.42393529 0.28541479 1.2670001
0.42689356 0.28518948 1.266
0.76314408 0.49829319 2.2120001
0.76855004 0.49806795 2.2110002
0.77360046 0.49761739 2.2090001
0.77899337 0.49739212 2.2080002
0.78331476 0.49649101 2.204
0.78833151 0.49604052 2.2020001
0.79369837 0.49581525 2.2010002
0.78889024 0.48928246 2.1720002
0.79307646 0.48838142 2.1680002
0.79908383 0.48860666 2.1690001
0.79990238 0.48567817 2.1560001
0.80438936 0.48500237 2.1530001
0.80848449 0.4841013 2.1490002
0.81293774 0.4834255 2.1460001
0.81928229 0.48387599 2.148
0.82371736 0.48320025 2.1450002
0.85056061 0.49558994 2.2
0.8535583 0.49401307 2.1930001
0.8576951 0.49311203 2.1890001
0.87837678 0.50167221 2.227
0.88536036 0.50234801 2.23
0.89195991 0.50279856 2.2320001
0.91345227 0.51158404 2.2710001
0.91895437 0.51135874 2.2700002
0.91956216 0.5084303 2.2570002
0.94060367 0.51676518 2.2940001
0.94409472 0.51541358 2.2880001
0.95004588 0.51541358 2.2880001
0.95557922 0.51518834 2.2870002
0.96194828 0.51541358 2.2880001
0.96747643 0.51518834 2.2870002
0.96874291 0.51271033 2.276
0.9746629 0.51271033 2.276
0.9814446 0.51316088 2.2780001
0.98867005 0.51383668 2.2810001
0.99591118 0.51451248 2.2840002
1.004045 0.51563883 2.289
1.0077927 0.51451248 2.2840002
1.0150651 0.51518834 2.2870002
1.0227993 0.51608938 2.2910001
1.0319016 0.51766622 2.2980001
1.0437502 0.52059472 2.3110001
1.058846 0.52510011 2.3310001
1.0621679 0.52374846 2.325
1.0677559 0.52352321 2.3240001
1.0728766 0.52307266 2.322
1.0775223 0.52239686 2.319
1.0816852 0.52149582 2.3150001
1.0877066 0.52149582 2.3150001
1.0923105 0.52081996 2.312
1.0964239 0.51991892 2.3080001
1.1009942 0.51924312 2.3050001
1.1031475 0.51744097 2.2970002
1.109605 0.51766622 2.2980001
1.1155821 0.51766622 2.2980001
1.1235116 0.51856732 2.302
1.1304804 0.51901788 2.3040001
1.1369665 0.51924312 2.3050001
1.1429619 0.51924312 2.3050001
1.1494557 0.51946837 2.306
1.1554537 0.51946837 2.306
1.160948 0.51924312 2.3050001
1.1730187 0.52194637 2.3170002
1.1586906 0.51293564 2.2770002
1.1625671 0.51203454 2.273
-1.827472 0.79116189 3.4720001
-1.7964437 0.78159136 3.4300001
-1.7870011 0.78136349 3.4290001
-1.7490438 0.76860285 3.3730001
-1.7371749 0.76723564 3.3670001
-1.7263639 0.76632416 3.3630002
-1.6946334 0.75607002 3.3180001
-1.6844785 0.75538641 3.3150001
-1.6500738 0.74376512 3.2640002
-1.6410811 0.74353725 3.2630002
-1.6140815 0.73510605 3.2260001
-1.6091746 0.73670113 3.233
-1.6007655 0.73670113 3.233
-1.5923563 0.73670113 3.233
-1.5839472 0.73670113 3.233
-1.5760254 0.73692906 3.2340002
-1.5666442 0.73647326 3.2320001
-1.5587198 0.73670113 3.233
-1.5704507 0.74627167 3.2750001
-1.5628862 0.74672741 3.2770002
-1.5548369 0.74695528 3.2780001
-1.562821 0.75493068 3.3130002
-1.555142 0.75538641 3.3150001
-1.5465196 0.75538641 3.3150001
-1.5518148 0.76222253 3.3450003
-1.5435756 0.7624504 3.3460002
-1.5353312 0.76267821 3.3470001
-1.5453265 0.77202088 3.3880002
-1.5360606 0.77179301 3.3870001
-1.5475421 0.78204715 3.4320002
-1.5399603 0.78273076 3.4350002
-1.5345913 0.78455365 3.4430001
-1.5282947 0.78592092 3.4490001
-1.5202048 0.78637666 3.4510002
-1.5116665 0.78660452 3.4520001
-1.5039936 0.78728813 3.4550002
-1.495007 0.78728813 3.4550002
-1.4782786 0.7831865 3.4370003
-1.4659188 0.78136349 3.4290001
-1.4412782 0.77293235 3.3920002
-1.4311887 0.77224874 3.3890002
-1.4047462 0.76267821 3.3470001
-1.3864472 0.75743723 3.3240001
-1.3744854 0.75561434 3.3160002
-1.3510319 0.74741101 3.2800002
-1.3310401 0.74103063 3.2520001
-1.3197347 0.73943555 3.2450001
-1.3116983 0.73966342 3.2460001
-1.2892032 0.73168802 3.2110002
-1.2816489 0.73214376 3.2130001
-1.2728955 0.73191589 3.2120001
-1.2633599 0.73123229 3.2090001
-1.2511022 0.7289536 3.1990001
-1.2493858 0.73282737 3.2160001
-1.2348467 0.72918147 3.2
-1.2307396 0.73168802 3.2110002
-1.2223877 0.73168802 3.2110002
-1.2144138 0.73191589 3.2120001
-1.2045573 0.73100442 3.2080002
-1.196586 0.73123229 3.2090001
-1.1893502 0.73191589 3.2120001
-1.182834 0.73305529 3.2170002
-1.1748316 0.7332831 3.2180002
-1.167549 0.73396671 3.2210002
-1.1703272 0.74103063 3.2520001
-1.1643696 0.74262571 3.2590001
-1.1583756 0.74422085 3.2660003
-1.1565701 0.74855036 3.2850001
-1.1494236 0.74946183 3.2890003
-1.1419094 0.75014544 3.2920001
-1.1340353 0.75060117 3.2940001
-1.1254674 0.75060117 3.2940001
-1.1158824 0.74991757 3.2910001
-1.1076589 0.75014544 3.2920001
-1.0910834 0.74467659 3.2680001
-1.0805956 0.74330932 3.2620001
-1.0622511 0.73647326 3.2320001
-1.0528662 0.73578966 3.2290001
-1.035087 0.72918147 3.2
-1.0270847 0.72940934 3.2010002
-1.0139847 0.72599131 3.1860001
-1.0041195 0.72485197 3.1810002
-0.99490649 0.72416836 3.1780002
-0.98570895 0.72348475 3.1750002
-0.97683495 0.72302896 3.1730001
-0.96827668 0.72280115 3.1720002
-0.96002609 0.72280115 3.1720002
-0.95267582 0.72348475 3.1750002
-0.94382262 0.72302896 3.1730001
-0.93114668 0.71961099 3.1580002
-0.92030233 0.71756011 3.1490002
-0.9115324 0.71710438 3.1470001
-0.90305984 0.71687651 3.1460001
-0.89573038 0.71756011 3.1490002
-0.88725787 0.7173323 3.1480002
-0.86789989 0.7082175 3.108
-0.86009252 0.70844537 3.1090002
-0.85255396 0.70890111 3.1110001
-0.84527653 0.70958471 3.1140001
-0.83771455 0.71004045 3.1160002
-0.8301422 0.71049619 3.118
-0.82282311 0.71117979 3.1210001
-0.81574941 0.71209133 3.1250002
-0.80865496 0.71300274 3.1290002
-0.80205137 0.71437001 3.1350002
-0.79718912 0.7173323 3.1480002
-0.78975302 0.71801591 3.1510003
-0.7790767 0.71573716 3.141
-0.77017063 0.71505362 3.1380002
-0.76128006 0.71437001 3.1350002
-0.75240511 0.71368635 3.1320002
-0.74354577 0.71300274 3.1290002
-0.73493707 0.712547 3.1270001
-0.7265712 0.71231914 3.1260002
-0.71844035 0.71231914 3.1260002
-0.71030951 0.71231914 3.1260002
-0.70240331 0.712547 3.1270001
-0.70337284 0.72188967 3.1680002
-0.2308621 0.46644828 2.0470002
-0.2253174 0.46599254 2.0450001
-0.21967553 0.4653089 2.0420001
-0.21394432 0.46439746 2.0380001
-0.20823391 0.46348599 2.0340002
-0.20274384 0.46303022 2.0320001
-0.19736135 0.46280238 2.0310001
-0.19207865 0.46280238 2.0310001
-0.18679595 0.46280238 2.0310001
-0.18142387 0.46257451 2.0300002
-0.17614377 0.46257451 2.0300002
-0.17077948 0.46234661 2.029
-0.16550198 0.46234661 2.029
-0.16101414 0.4646253 2.039
-0.15548153 0.46394169 2.036
-0.1502596 0.46416959 2.0370002
-0.1448901 0.46394169 2.036
-0.13966297 0.46416959 2.0370002
-0.13449657 0.4646253 2.039
-0.12919305 0.4646253 2.039
-0.12388954 0.4646253 2.039
-0.1187605 0.4653089 2.0420001
-0.11344919 0.4653089 2.0420001
-0.10776717 0.46371382 2.0350001
-0.10232299 0.46303022 2.0320001
-0.096894421 0.46234661 2.029
-0.091616914 0.46234661 2.029
-0.086211756 0.46166301 2.026
-0.080822192 0.4609794 2.023
-0.075522952 0.46075153 2.0220001
-0.070228904 0.46052369 2.0210001
-0.064907901 0.46006793 2.0190001
-0.059656415 0.46006793 2.0190001
-0.054377977 0.45984006 2.0180001
-0.049129084 0.45984006 2.0180001
-0.043945421 0.46052369 2.0210001
-0.038688727 0.46052369 2.0210001
-0.033448569 0.46075153 2.0220001
-0.028203214 0.4609794 2.023
-0.022941317 0.4609794 2.023
-0.017688159 0.4612073 2.0240002
-0.01241752 0.4609794 2.023
-0.0071556228 0.4609794 2.023
-0.0018909161 0.46029577 2.02
0.0033581841 0.45961222 2.0170002
0.0085916789 0.45892861 2.0140002
0.013816432 0.45847285 2.0120001
0.019021314 0.45778924 2.0090001
0.024222663 0.45733353 2.0070002
0.029442944 0.45733353 2.0070002
0.034663226 0.45733353 2.0070002
0.039923251 0.45778924 2.0090001
0.045193683 0.45824498 2.0110002
0.050499592 0.45892861 2.0140002
0.056457639 0.4648532 2.0400002
0.061521538 0.46303022 2.0320001
0.067826055 0.4700942 2.0630002
0.073262937 0.47054991 2.0650001
0.079966873 0.47852534 2.1000001
0.085754484 0.48034829 2.108
0.09149716 0.4817155 2.1140001
0.097500466 0.48422205 2.125
0.10331856 0.48558927 2.131
0.10906572 0.48650074 2.135
0.11477999 0.48718435 2.138
0.12056616 0.48809588 2.1420002
0.12625535 0.48855159 2.1440001
0.13201644 0.48923519 2.1470001
0.13779314 0.4899188 2.1500001
0.14358544 0.4906024 2.1530001
0.14939335 0.49128601 2.1560001
0.15536064 0.49242535 2.161
0.16127947 0.49333686 2.1650002
0.16714202 0.49402046 2.1680002
0.17317952 0.49515978 2.1730001
0.17973684 0.49766633 2.184
0.18558732 0.4981221 2.1860001
0.19442315 0.50632536 2.2220001
0.20020266 0.50632536 2.2220001
0.20607485 0.50655323 2.223
0.21147576 0.50564176 2.2190001
0.21724746 0.50564176 2.2190001
0.22301915 0.50564176 2.2190001
0.22879086 0.50564176 2.2190001
0.23445687 0.50541395 2.2180002
0.23990104 0.50473028 2.2150002
0.24555141 0.50450242 2.214
0.25096962 0.50381887 2.2110002
0.25637215 0.5031352 2.2080002
0.2617591 0.5024516 2.2050002
0.26543209 0.49857786 2.1880002
0.27161881 0.49948931 2.1920002
0.27618164 0.49743849 2.1830001
0.28160146 0.49698272 2.181
0.28622058 0.49515978 2.1730001
0.29173836 0.49493194 2.1720002
0.29697704 0.49424833 2.1690001
0.30233964 0.49379256 2.1670001
0.30783397 0.49356472 2.1660001
0.31332314 0.49333686 2.1650002
0.31880701 0.49310896 2.164
0.32458562 0.49333686 2.1650002
0.3300643 0.49310896 2.164
0.33569294 0.49310896 2.164
0.34132159 0.49310896 2.164
0.34727088 0.49356472 2.1660001
0.35339352 0.49424833 2.1690001
0.35969731 0.49515978 2.1730001
0.36585376 0.49584341 2.1760001
0.37219653 0.49675485 2.1800001
0.3782135 0.49721062 2.1820002
0.38441673 0.49789423 2.1850002
0.39670581 0.50632536 2.2220001
0.40139848 0.50495815 2.2160001
0.40789732 0.50586963 2.22
0.42168421 0.51566797 2.263
0.42851505 0.51680738 2.2680001
0.43498883 0.51749098 2.2710001
0.43992507 0.51635158 2.266
0.44640923 0.51703525 2.2690001
0.45709527 0.52250409 2.2930002
0.46346334 0.52295983 2.2950001
0.47004634 0.52364343 2.2980001
0.47478062 0.52227622 2.2920001
0.47465953 0.51566797 2.263
0.48054564 0.51566797 2.263
0.4786936 0.50746471 2.227
0.48165792 0.50450242 2.214
0.48895773 0.50609756 2.2210002
0.48916581 0.50040078 2.1960001
0.49375093 0.49926147 2.1910002
0.49785408 0.49766633 2.184
0.5039959 0.4981221 2.1860001
0.49918965 0.48786795 2.141
0.34627876 0.31719396 1.3920001
0.34009618 0.30830702 1.353
0.34336141 0.30807918 1.3520001
0.34379923 0.30534473 1.34
0.34210125 0.30078736 1.3200001
0.34213161 0.29782504 1.307
0.34288752 0.29554635 1.2970001
0.34305739 0.29281193 1.2850001
0.34451273 0.29121685 1.2780001
0.34647596 0.29007748 1.273
0.34896281 0.2893939 1.2700001
0.35171133 0.28893813 1.268
0.35416952 0.28825456 1.2650001
0.35717729 0.28802669 1.2640001
0.35989463 0.28757095 1.2620001
0.36260158 0.28711522 1.2600001
0.36558852 0.28688735 1.2590001
0.36857021 0.28665945 1.258
0.37154675 0.28643161 1.2570001
0.37481627 0.28643161 1.2570001
0.37808576 0.28643161 1.2570001
0.38165861 0.28665945 1.258
0.38554275 0.28711522 1.2600001
0.38974577 0.28779879 1.263
0.39396444 0.2884824 1.266
0.39788496 0.28893813 1.268
0.40213224 0.28962177 1.271
0.40575716 0.28984964 1.2720001
0.40938726 0.29007748 1.273
0.41269839 0.29007748 1.273
0.41600949 0.29007748 1.273
0.41899127 0.28984964 1.2720001
0.42163578 0.2893939 1.2700001
0.42426986 0.28893813 1.268
0.42723078 0.2887103 1.2670001
0.76820236 0.50359094 2.21
0.77360046 0.50336307 2.2090001
0.77864051 0.50290734 2.207
0.78189319 0.50131226 2.2
0.78689951 0.50085652 2.1980002
0.7817983 0.49402046 2.1680002
0.78780061 0.49424833 2.1690001
0.79197901 0.49333686 2.1650002
0.79539973 0.49196965 2.1590002
0.80027336 0.49151388 2.1570001
0.80513662 0.49105817 2.1550002
0.80998933 0.4906024 2.1530001
0.81445301 0.4899188 2.1500001
0.82042658 0.49014664 2.151
0.84368616 0.50062865 2.197
0.84785426 0.49971718 2.1930001
0.85394752 0.49994501 2.194
0.87924528 0.51133853 2.2440002
0.88113785 0.50905985 2.2340002
0.88655144 0.50883192 2.233
0.8927592 0.50905985 2.2340002
0.91506112 0.51840246 2.2750001
0.9181447 0.51680738 2.2680001
0.93463695 0.52273196 2.2940001
0.94101369 0.52295983 2.2950001
0.94574523 0.52227622 2.2920001
0.95170677 0.52227622 2.2920001
0.95766836 0.52227622 2.2920001
0.96362996 0.52227622 2.2920001
0.96916854 0.52204835 2.2910001
0.97427619 0.52159262 2.289
0.97551942 0.51908606 2.2780001
0.9823063 0.5195418 2.2800002
0.98953682 0.52022541 2.283
0.9967832 0.52090901 2.286
1.0044838 0.52182049 2.2900002
1.0095576 0.52136475 2.2880001
1.0168403 0.52204835 2.2910001
1.024585 0.52295983 2.2950001
1.0332487 0.52432704 2.3010001
1.0437502 0.52660573 2.3110001
1.053395 0.52842867 2.319
1.0603405 0.52888441 2.3210001
1.0668371 0.52911228 2.322
1.0724146 0.52888441 2.3210001
1.077987 0.5286566 2.3200002
1.0788816 0.52614999 2.309
1.0862969 0.52683359 2.312
1.0913657 0.52637792 2.3100002
1.0954738 0.52546638 2.306
1.1005166 0.52501065 2.3040001
1.1031475 0.52341557 2.2970002
1.1091222 0.52341557 2.2970002
1.1155821 0.52364343 2.2980001
1.1225355 0.52409917 2.3000002
1.1294991 0.52455491 2.302
1.1374598 0.52546638 2.306
1.1439537 0.52569425 2.3070002
1.150951 0.52614999 2.309
1.1569569 0.52614999 2.309
1.162459 0.52592212 2.3080001
1.167956 0.52569425 2.3070002
1.1734476 0.52546638 2.306
1.1630787 0.51817459 2.2740002
-1.827472 0.80019271 3.4720001
-1.7964437 0.79051292 3.4300001
-1.7870011 0.79028249 3.4290001
-1.7775637 0.79005206 3.4280002
-1.7480097 0.78083324 3.3880002
-1.730984 0.77714568 3.3720002
-1.7125093 0.77276677 3.3530002
-1.7032797 0.77253628 3.3520002
-1.6778784 0.76493078 3.3190002
-1.6687425 0.76470029 3.3180001
-1.6591117 0.76423937 3.3160002
-1.6330658 0.7561729 3.2810001
-1.6240368 0.75594246 3.2800002
-1.6031921 0.75018066 3.2550001
-1.5957056 0.75064164 3.2570002
-1.5906453 0.7522549 3.2640002
-1.5836097 0.75294632 3.2670002
-1.5775228 0.75409865 3.2720001
-1.5704507 0.75479007 3.2750001
-1.5624093 0.75502056 3.2760003
-1.5543627 0.75525105 3.2770002
-1.5472542 0.75594246 3.2800002
-1.5391918 0.7561729 3.2810001
-1.5465196 0.76400888 3.3150001
-1.5374331 0.76377839 3.3140001
-1.5292747 0.76400888 3.3150001
-1.5211111 0.76423937 3.3160002
-1.5261695 0.77115345 3.3460002
-1.5179199 0.77138394 3.3470001
-1.5308583 0.7824465 3.3950002
-1.5220277 0.7824465 3.3950002
-1.5350372 0.79373956 3.4440002
-1.5282947 0.79489189 3.4490001
-1.5206453 0.79558331 3.4520001
-1.5125424 0.79604429 3.4540002
-1.5048643 0.7967357 3.4570003
-1.4958725 0.7967357 3.4570003
-1.4769882 0.79143488 3.4340003
-1.4659188 0.79028249 3.4290001
-1.4408534 0.78152466 3.3910003
-1.4311887 0.78106368 3.3890002
-1.4034871 0.77069253 3.3440001
-1.3885328 0.76723546 3.3290002
-1.3649518 0.75893855 3.2930002
-1.3506199 0.75571191 3.279
-1.3318588 0.74995023 3.2540002
-1.3185146 0.74718451 3.2420001
-1.2987673 0.74073142 3.2140002
-1.2879987 0.73934859 3.2080002
-1.2704799 0.73404777 3.1850002
-1.2582327 0.73174304 3.1750002
-1.2499744 0.73174304 3.1750002
-1.2479736 0.7354306 3.1910002
-1.2381196 0.73450869 3.187
-1.2325314 0.73612201 3.1940002
-1.2295897 0.73934859 3.2080002
-1.2216263 0.73957902 3.2090001
-1.2136576 0.73980945 3.21
-1.2026799 0.73819619 3.2030001
-1.1954674 0.73888761 3.2060001
-1.18898 0.74004 3.2110002
-1.1832018 0.74165326 3.2180002
-1.1755618 0.74211425 3.2200003
-1.1682739 0.7428056 3.223
-1.1613302 0.74372751 3.2270002
-1.1654414 0.75179392 3.2620001
-1.1587303 0.75294632 3.2670002
-1.1562181 0.75686431 3.2840002
-1.1494236 0.75801671 3.2890003
-1.1419094 0.75870806 3.2920001
-1.1336911 0.75893855 3.2930002
-1.1251258 0.75893855 3.2930002
-1.1155434 0.75824714 3.2900002
-1.1066495 0.75801671 3.2890003
-1.092085 0.75386816 3.2710001
-1.0799332 0.75133306 3.2600002
-1.0629084 0.74534082 3.2340002
-1.0528662 0.74418843 3.2290001
-1.0295881 0.73358679 3.1830001
-1.0274055 0.73796576 3.2020001
-1.0133482 0.73381728 3.1840003
-1.0034882 0.73266494 3.1790001
-0.99396729 0.73174304 3.1750002
-0.98477757 0.73105162 3.1720002
-0.97591138 0.7305907 3.1700001
-0.96705562 0.73012978 3.1680002
-0.95881552 0.73012978 3.1680002
-0.95237577 0.73151261 3.1740003
-0.9435252 0.73105162 3.1720002
-0.9352746 0.73105162 3.1720002
-0.92117912 0.72644222 3.1520002
-0.90950483 0.72367656 3.1400001
-0.90392101 0.7257508 3.1490002
-0.89601481 0.7259813 3.1500001
-0.88753974 0.7257508 3.1490002
-0.87906986 0.72552037 3.1480002
-0.87115836 0.7257508 3.1490002
-0.86324173 0.7259813 3.1500001
-0.85531998 0.72621179 3.1510003
-0.84712404 0.72621179 3.1510003
-0.83919448 0.72644222 3.1520002
-0.83125961 0.72667271 3.1530001
-0.82331949 0.72690314 3.154
-0.81563276 0.72736412 3.1560001
-0.80793566 0.72782505 3.1580002
-0.7987085 0.72690314 3.154
-0.79025424 0.72667271 3.1530001
-0.78775793 0.73197353 3.1760001
-0.77679735 0.72943836 3.1650002
-0.76832217 0.72920787 3.164
-0.75961202 0.72874695 3.1620002
-0.75114995 0.72851646 3.1610003
-0.74363315 0.72920787 3.164
-0.73424137 0.72805554 3.1590002
-0.72602469 0.72805554 3.1590002
-0.71803516 0.72828597 3.1600001
-0.70981592 0.72828597 3.1600001
-0.71203184 0.7391181 3.2070003
-0.71093124 0.74672365 3.2400002
-0.71052629 0.75525105 3.2770002
-0.71292794 0.76700497 3.3280001
-0.71464109 0.77829802 3.3770001
-0.70264614 0.80480212 3.4920001
-0.24221864 0.47315544 2.0530002
-0.20813151 0.468546 2.033
-0.20264407 0.46808508 2.0310001
-0.19726418 0.46785465 2.0300002
-0.19198409 0.46785465 2.0300002
-0.18670398 0.46785465 2.0300002
-0.18133448 0.46762413 2.029
-0.17605698 0.46762413 2.029
-0.17069532 0.46739367 2.0280001
-0.16542041 0.46739367 2.0280001
-0.16093518 0.46969837 2.0380001
-0.15540516 0.46900696 2.0350001
-0.15011206 0.46900696 2.0350001
-0.14474778 0.46877649 2.0340002
-0.13952583 0.46900696 2.0350001
-0.13423273 0.46900696 2.0350001
-0.12900297 0.46923742 2.036
-0.12370726 0.46923742 2.036
-0.11852787 0.46969837 2.0380001
-0.11317141 0.46946791 2.0370002
-0.10776717 0.46900696 2.0350001
-0.10212157 0.46739367 2.0280001
-0.096703403 0.46670225 2.0250001
-0.091436297 0.46670225 2.0250001
-0.086041547 0.46601084 2.0220001
-0.080622442 0.46508896 2.0180001
-0.075186796 0.4639366 2.013
-0.069881409 0.46347567 2.0110002
-0.064618565 0.46324518 2.01
-0.059597325 0.46485853 2.0170002
-0.054297138 0.46439755 2.0150001
-0.049056046 0.46439755 2.0150001
-0.043836698 0.46462801 2.016
-0.038573865 0.46439755 2.0150001
-0.033365861 0.46485853 2.0170002
-0.02813351 0.46508896 2.0180001
-0.022895956 0.46531942 2.0190001
-0.017653199 0.46554989 2.02
-0.012392968 0.46531942 2.0190001
-0.0071414742 0.46531942 2.0190001
-0.0018871718 0.46462801 2.016
0.003351524 0.4639366 2.013
0.0085746143 0.46324518 2.01
0.013782098 0.46255383 2.0070002
0.018983442 0.46209285 2.0050001
0.024174385 0.46163189 2.003
0.029384261 0.46163189 2.003
0.034594141 0.46163189 2.003
0.039843764 0.46209285 2.0050001
0.045103792 0.46255383 2.0070002
0.050424367 0.46347567 2.0110002
0.05642996 0.46992883 2.039
0.061521538 0.46831554 2.0320001
0.067727417 0.47476873 2.0600002
0.073404856 0.47684294 2.069
0.079966873 0.48398754 2.1000001
0.085713804 0.48560083 2.1070001
0.0914106 0.48675314 2.112
0.097546354 0.48997977 2.1260002
0.10336706 0.4913626 2.1320002
0.10916789 0.49251491 2.1370001
0.11494105 0.49343678 2.141
0.12073503 0.49435872 2.1450002
0.12649089 0.49505007 2.148
0.13226239 0.49574149 2.151
0.13804948 0.4964329 2.154
0.1438522 0.49712431 2.1570001
0.1497398 0.49804619 2.161
0.15564823 0.49896812 2.1650002
0.16157745 0.49989 2.1690001
0.16752748 0.50081187 2.1730001
0.1734983 0.50173372 2.177
0.17924307 0.50196421 2.1780002
0.18584202 0.50449938 2.1890001
0.19486064 0.51325721 2.227
0.20065314 0.51325721 2.227
0.20653836 0.51348776 2.2280002
0.21214287 0.51302677 2.2260001
0.21793278 0.51302677 2.2260001
0.22362219 0.51279634 2.2250001
0.2293064 0.51256585 2.2240002
0.23487969 0.51210493 2.2220001
0.24033426 0.51141351 2.2190001
0.24588414 0.51095253 2.217
0.25119662 0.51003063 2.2130001
0.25660437 0.50933921 2.21
0.2618778 0.50841737 2.2060001
0.26555339 0.50449938 2.1890001
0.27013183 0.50242513 2.1800001
0.27529603 0.50150329 2.1760001
0.28056857 0.50081187 2.1730001
0.28595716 0.50035089 2.171
0.29120108 0.49965954 2.1680002
0.29656631 0.49919856 2.1660001
0.30192107 0.4987376 2.164
0.30726549 0.49827671 2.1620002
0.31288895 0.49827671 2.1620002
0.31851238 0.49827671 2.1620002
0.32428575 0.49850714 2.1630001
0.32991177 0.49850714 2.1630001
0.33569294 0.4987376 2.164
0.34147936 0.49896812 2.1650002
0.34743121 0.49942902 2.1670001
0.35371938 0.50035089 2.171
0.36019391 0.50150329 2.1760001
0.36652625 0.50242513 2.1800001
0.37270874 0.50311655 2.1830001
0.37873349 0.50357753 2.1850002
0.3909263 0.51210493 2.2220001
0.39688435 0.51233536 2.223
0.40302873 0.51279634 2.2250001
0.4159818 0.52178466 2.2640002
0.42149788 0.52132368 2.2620001
0.43456113 0.53008157 2.3000002
0.44035193 0.52985108 2.299
0.44691417 0.53054249 2.302
0.45427892 0.53215581 2.309
0.45769328 0.52915967 2.296
0.46386725 0.52939016 2.2970002
0.4708645 0.53054249 2.302
0.47478062 0.52823782 2.2920001
0.4796935 0.52708548 2.2870002
0.48012099 0.52109325 2.2610002
0.48406738 0.51901901 2.2520001
0.4814404 0.51003063 2.2130001
0.48917788 0.51210493 2.2220001
0.48849756 0.50542128 2.1930001
0.4933002 0.50449938 2.1890001
0.4973982 0.50288612 2.1820002
0.50215149 0.50196421 2.1780002
0.50781649 0.50196421 2.1780002
0.36087415 0.33786938 1.4660001
0.35542941 0.32588494 1.414
0.34183761 0.31021297 1.3460001
0.34277299 0.30790827 1.3360001
0.34210125 0.30422074 1.3200001
0.34370226 0.30260745 1.3130001
0.34262311 0.29868942 1.296
0.34279042 0.2959238 1.284
0.34343442 0.2936191 1.274
0.34538728 0.29246676 1.2690001
0.34786367 0.29177535 1.266
0.35060185 0.29131439 1.2640001
0.3533296 0.29085347 1.2620001
0.35632953 0.29062298 1.261
0.3590391 0.29016206 1.2590001
0.36202598 0.28993157 1.258
0.36500776 0.2897011 1.2570001
0.36827725 0.2897011 1.2570001
0.37125114 0.28947064 1.256
0.37481627 0.2897011 1.2570001
0.37838653 0.28993157 1.258
0.38196203 0.29016206 1.2590001
0.38615471 0.29085347 1.2620001
0.39036298 0.29154488 1.2650001
0.39458683 0.29223627 1.268
0.39851257 0.29269722 1.2700001
0.40244865 0.29315817 1.2720001
0.40639514 0.2936191 1.274
0.40970889 0.2936191 1.274
0.41302258 0.2936191 1.274
0.4163363 0.2936191 1.274
0.41899127 0.29315817 1.2720001
0.42163578 0.29269722 1.2700001
0.42460448 0.29246676 1.2690001
0.42756796 0.29223627 1.268
0.43052632 0.29200581 1.2670001
0.76855004 0.50956976 2.2110002
0.77395064 0.50933921 2.21
0.78118241 0.50657362 2.1980002
0.78940552 0.50818694 2.2050002
0.78107709 0.49919856 2.1660001
0.78671098 0.49919856 2.1660001
0.79088157 0.49827671 2.1620002
0.79539973 0.4975853 2.1590002
0.80064434 0.49735478 2.158
0.80551022 0.49689388 2.1560001
0.81074184 0.49666342 2.1550002
0.82998449 0.50496036 2.1910002
0.8360647 0.50519079 2.1920002
0.84215015 0.50542128 2.1930001
0.86486542 0.51556194 2.237
0.86951637 0.51487058 2.2340002
0.8768943 0.51579243 2.2380002
0.89494252 0.522937 2.2690001
0.9020353 0.52362841 2.2720001
0.90874416 0.52408934 2.2740002
0.91546333 0.52455026 2.276
0.92259777 0.52524167 2.279
0.93422955 0.52846831 2.2930002
0.94101369 0.52892923 2.2950001
0.94657052 0.52869874 2.2940001
0.9529525 0.52892923 2.2950001
0.95892185 0.52892923 2.2950001
0.96489125 0.52892923 2.2950001
0.97043765 0.52869874 2.2940001
0.9755531 0.52823782 2.2920001
0.97551942 0.52501124 2.2780001
0.9823063 0.52547222 2.2800002
0.98953682 0.52616358 2.283
0.9967832 0.52685499 2.286
1.004045 0.52754641 2.289
1.0108813 0.52800733 2.2910001
1.0181719 0.52869874 2.2940001
1.0259244 0.52962065 2.2980001
1.0341468 0.53077298 2.3030002
1.0432986 0.5323863 2.3100002
1.0520325 0.53376913 2.3160002
1.05897 0.53423005 2.3180001
1.0654587 0.53446048 2.319
1.0705664 0.53399956 2.3170002
1.0756637 0.53353864 2.3150001
1.0798161 0.53261673 2.3110001
1.0858271 0.53261673 2.3110001
1.0904207 0.53192532 2.3080001
1.0945237 0.53100348 2.3040001
1.0995612 0.53054249 2.302
1.102187 0.52892923 2.2950001
1.1081563 0.52892923 2.2950001
1.1150967 0.52939016 2.2970002
1.1220473 0.52985108 2.299
1.1290084 0.53031206 2.3010001
1.1359801 0.53077298 2.3030002
1.1444495 0.53192532 2.3080001
1.1514497 0.5323863 2.3100002
1.1579591 0.53261673 2.3110001
1.1634665 0.5323863 2.3100002
1.1684623 0.53192532 2.3080001
1.1739566 0.53169489 2.3070002
1.1630787 0.52408934 2.2740002
-1.827472 0.80922347 3.4720001
-1.8168699 0.80852425 3.4690001
-1.8130583 0.81085497 3.4790001
-1.7775637 0.79896837 3.4280002
-1.7660676 0.79780298 3.4230001
-1.7576777 0.7980361 3.4240003
-1.7477503 0.79756993 3.4220002
-1.7225889 0.7901116 3.3900001
-1.7132659 0.78987855 3.3890002
-1.6863453 0.781488 3.3530002
-1.6771238 0.78125495 3.3520002
-1.6499888 0.77263129 3.3150001
-1.6403762 0.77216518 3.3130002
-1.6312665 0.77193213 3.3120003
-1.6064841 0.76424068 3.279
-1.5925946 0.76167691 3.2680001
-1.5845791 0.76190996 3.2690001
-1.5789691 0.76330841 3.2750001
-1.5709302 0.76354152 3.2760003
-1.5619323 0.76330841 3.2750001
-1.5538883 0.76354152 3.2760003
-1.5472542 0.7644738 3.2800002
-1.5396609 0.7649399 3.2820001
-1.5329906 0.76587224 3.2860003
-1.5258353 0.76657146 3.2890003
-1.5191257 0.76750374 3.2930002
-1.5119367 0.76820296 3.2960002
-1.5038197 0.76843601 3.2970002
-1.5047679 0.77333051 3.3180001
-1.5173308 0.78428489 3.3650002
-1.5090265 0.78451794 3.3660002
-1.5176543 0.79360771 3.4050002
-1.509684 0.79407382 3.4070001
-1.5012628 0.79430693 3.4080002
-1.5029082 0.79990065 3.4320002
-1.4939816 0.79990065 3.4320002
-1.484622 0.7996676 3.4310002
-1.4765581 0.80013371 3.4330001
-1.4496735 0.79034472 3.3910003
-1.4408534 0.79034472 3.3910003
-1.4311887 0.78987855 3.3890002
-1.4030675 0.77915728 3.3430002
-1.389367 0.77636039 3.3310001
-1.3666098 0.76843601 3.2970002
-1.3489724 0.76330841 3.2750001
-1.3330867 0.75911319 3.2570002
-1.3160744 0.75421864 3.2360001
-1.2979591 0.74862492 3.2120001
-1.2855897 0.74629426 3.2020001
-1.270081 0.74209899 3.1840003
-1.2602141 0.74116665 3.1800001
-1.2523366 0.74139977 3.1810002
-1.2452359 0.74209899 3.1840003
-1.2365657 0.74186587 3.1830001
-1.2298301 0.74279815 3.187
-1.2200074 0.74186587 3.1830001
-1.2124897 0.74233204 3.1850002
-1.2053398 0.74303126 3.1880002
-1.2004269 0.74512893 3.1970003
-1.193603 0.74606121 3.2010002
-1.1882393 0.7479257 3.2090001
-1.1832018 0.75002337 3.2180002
-1.1759269 0.75072259 3.2210002
-1.1686364 0.75142181 3.2240002
-1.1613302 0.75212103 3.2270002
-1.1654414 0.76027852 3.2620001
-1.1580209 0.76097769 3.2650001
-1.1484723 0.76027852 3.2620001
-1.149773 0.76680452 3.2900002
-1.1419094 0.76727062 3.2920001
-1.1333468 0.76727062 3.2920001
-1.1244425 0.76703757 3.2910001
-1.1148652 0.76633835 3.2880001
-1.1056402 0.76587224 3.2860003
-1.0934205 0.76330841 3.2750001
-1.0789393 0.75911319 3.2570002
-1.0638944 0.75445175 3.2370002
-1.0424322 0.74512893 3.1970003
-1.0295881 0.74186587 3.1830001
-1.0209882 0.74163282 3.1820002
-1.0120751 0.74116665 3.1800001
-1.0022255 0.74000132 3.1750002
-0.99271506 0.73906904 3.1710002
-0.98353577 0.73836982 3.1680002
-0.97437209 0.7376706 3.1650002
-0.96522409 0.73697138 3.1620002
-0.95669693 0.73673832 3.1610003
-0.94577456 0.73464066 3.1520002
-0.93698114 0.73417449 3.1500001
-0.93055695 0.73557293 3.1560001
-0.92088687 0.7344076 3.1510003
-0.9121117 0.73394144 3.1490002
-0.904208 0.73417449 3.1500001
-0.89288586 0.73161077 3.1390002
-0.88810343 0.7344076 3.1510003
-0.8796283 0.73417449 3.1500001
-0.87171167 0.7344076 3.1510003
-0.86378986 0.73464066 3.1520002
-0.85586286 0.73487371 3.1530001
-0.84766173 0.73487371 3.1530001
-0.83972692 0.73510677 3.154
-0.83152324 0.73510677 3.154
-0.82358062 0.73533988 3.1550002
-0.81589121 0.73580599 3.1570001
-0.80716813 0.73533988 3.1550002
-0.79972148 0.7360391 3.1580002
-0.79225934 0.73673832 3.1610003
-0.78502959 0.7376706 3.1650002
-0.77704275 0.73790365 3.1660001
-0.76856506 0.7376706 3.1650002
-0.75985223 0.73720443 3.1630001
-0.7513876 0.73697138 3.1620002
-0.74292809 0.73673832 3.1610003
-0.73424137 0.73627216 3.1590002
-0.72625446 0.73650521 3.1600001
-0.71826243 0.73673832 3.1610003
-0.71588081 0.74279815 3.187
-0.71225381 0.74769264 3.2080002
-0.71115065 0.75538403 3.2410002
-0.71095991 0.76424068 3.279
-0.71335644 0.77612734 3.3300002
-0.69862181 0.80922347 3.4720001
-0.19716699 0.47290161 2.029
-0.19188949 0.47290161 2.029
-0.18670398 0.47313473 2.0300002
-0.18124512 0.47266856 2.0280001
-0.17605698 0.47290161 2.029
-0.17069532 0.47266856 2.0280001
-0.16542041 0.47266856 2.0280001
-0.15998757 0.47220239 2.026
-0.15532881 0.474067 2.0340002
-0.14996453 0.47383389 2.033
-0.14460544 0.47360083 2.0320001
-0.13932014 0.47360083 2.0320001
-0.13410079 0.47383389 2.033
-0.12887627 0.474067 2.0340002
-0.12352498 0.47383389 2.033
-0.11829524 0.474067 2.0340002
-0.11294916 0.47383389 2.033
-0.10750239 0.47313473 2.0300002
-0.10186978 0.47150317 2.023
-0.096464626 0.47080395 2.02
-0.091210522 0.47080395 2.02
-0.085828789 0.47010478 2.0170002
-0.080462635 0.46940556 2.0140002
-0.075112097 0.46870637 2.0110002
-0.069777161 0.46800715 2.0080001
-0.064489976 0.46754098 2.006
-0.059479129 0.46917248 2.013
-0.054243241 0.46917248 2.013
-0.049007352 0.46917248 2.013
-0.043793213 0.46940556 2.0140002
-0.038459003 0.4682402 2.0090001
-0.033365861 0.47010478 2.0170002
-0.028049862 0.46893942 2.0120001
-0.022839257 0.46940556 2.0140002
-0.017609505 0.46963862 2.0150001
-0.012362278 0.46940556 2.0140002
-0.0071167145 0.46893942 2.0120001
-0.0018824914 0.46870637 2.0110002
0.0033431996 0.46800715 2.0080001
0.0085575506 0.46754098 2.006
0.013754629 0.46684176 2.003
0.018936101 0.46614254 2
0.024126109 0.46590948 1.9990001
0.02934025 0.46614254 2
0.034542326 0.46614254 2
0.039784145 0.4666087 2.0020001
0.045036372 0.46707487 2.0040002
0.050374217 0.4682402 2.0090001
0.056402285 0.47499928 2.0380001
0.061763752 0.47546545 2.0400002
0.067628786 0.47942764 2.0570002
0.073440336 0.48245758 2.0700002
0.079852633 0.48875049 2.0970001
0.085632443 0.49061501 2.105
0.091324039 0.4917804 2.1100001
0.097546354 0.49550956 2.1260002
0.10336706 0.49690798 2.1320002
0.10927007 0.49853948 2.1390002
0.1151021 0.49970481 2.1440001
0.12090387 0.50063705 2.148
0.12672646 0.50156939 2.1520002
0.13250837 0.50226861 2.1550002
0.13830584 0.50296777 2.158
0.14418568 0.50390011 2.1620002
0.15001699 0.50459933 2.1650002
0.15600768 0.50576466 2.1700001
0.16187541 0.50646389 2.1730001
0.16783586 0.50739616 2.177
0.17357802 0.50762928 2.1780002
0.18006605 0.50996 2.1880002
0.18652119 0.5120576 2.197
0.19529815 0.52021509 2.2320001
0.20110366 0.52021509 2.2320001
0.20700186 0.52044815 2.233
0.21271469 0.52021509 2.2320001
0.21852019 0.52021509 2.2320001
0.22301915 0.51718515 2.2190001
0.22899708 0.51765132 2.2210002
0.23466827 0.51741821 2.22
0.24033426 0.51718515 2.2190001
0.24577323 0.51648593 2.2160001
0.25153714 0.51648593 2.2160001
0.25718492 0.51625288 2.2150002
0.26270878 0.51578671 2.2130001
0.26482549 0.50879461 2.1830001
0.26963618 0.50716311 2.1760001
0.27592859 0.50832844 2.181
0.28121415 0.50762928 2.1780002
0.28543028 0.50506544 2.1670001
0.29079813 0.50459933 2.1650002
0.29601863 0.50390011 2.1620002
0.30136299 0.50343394 2.1600001
0.30698124 0.50343394 2.1600001
0.31259951 0.50343394 2.1600001
0.31836504 0.503667 2.161
0.32398587 0.503667 2.161
0.32975927 0.50390011 2.1620002
0.33569294 0.50436622 2.164
0.34163707 0.50483239 2.1660001
0.34775189 0.50553161 2.1690001
0.35404524 0.50646389 2.1730001
0.3606905 0.50786233 2.1790001
0.36703065 0.50879461 2.1830001
0.37339166 0.50972688 2.187
0.38566682 0.5185836 2.2250001
0.3909263 0.51788437 2.2220001
0.39759848 0.5190497 2.227
0.41154212 0.52953792 2.2720001
0.41671675 0.52860564 2.2680001
0.42951041 0.5372293 2.3050001
0.43493897 0.53653008 2.302
0.44686437 0.54375529 2.3330002
0.4527384 0.54352218 2.332
0.45506594 0.53909391 2.3130002
0.46407229 0.5425899 2.3280001
0.46931973 0.54165763 2.3240001
0.47188726 0.53769547 2.3070002
0.48037359 0.5404923 2.319
0.47948372 0.53280091 2.286
0.48203215 0.52907181 2.2700002
0.4786936 0.5190497 2.227
0.4844861 0.5190497 2.227
0.48939803 0.51811743 2.223
0.4878293 0.5104261 2.1900001
0.49262413 0.50949383 2.1860001
0.49717021 0.50832844 2.181
0.50192088 0.50739616 2.177
0.50641757 0.50623083 2.1720002
0.34235615 0.29600054 1.2700001
0.3442986 0.29483518 1.2650001
0.34703937 0.29436901 1.263
0.34976971 0.29390287 1.261
0.35248965 0.29343674 1.2590001
0.3554818 0.29320365 1.258
0.35846874 0.2929706 1.2570001
0.36173823 0.2929706 1.2570001
0.36471736 0.29273751 1.256
0.36798427 0.29273751 1.256
0.37125114 0.29273751 1.256
0.37481627 0.2929706 1.2570001
0.37838653 0.29320365 1.258
0.38256878 0.29390287 1.261
0.38646069 0.29436901 1.263
0.39067155 0.29506823 1.266
0.39489803 0.29576746 1.2690001
0.39882633 0.29623359 1.271
0.40308142 0.29693282 1.274
0.40671414 0.2971659 1.2750001
0.41003048 0.2971659 1.2750001
0.4133468 0.2971659 1.2750001
0.4163363 0.29693282 1.274
0.41899127 0.29646668 1.2720001
0.42163578 0.29600054 1.2700001
0.42460448 0.29576746 1.2690001
0.42756796 0.29553437 1.268
0.43018651 0.29506823 1.266
0.76855004 0.5153206 2.2110002
0.77360046 0.51485443 2.2090001
0.77336347 0.50716311 2.1760001
0.77759129 0.50623083 2.1720002
0.78035581 0.50436622 2.164
0.78562135 0.50413316 2.1630001
0.79014993 0.50343394 2.1600001
0.79503125 0.50296777 2.158
0.80064434 0.50296777 2.158
0.80588377 0.50273472 2.1570001
0.81111801 0.50250167 2.1560001
0.83036327 0.51089227 2.1920002
0.8360647 0.51089227 2.1920002
0.85674286 0.51998204 2.2310002
0.86293238 0.52021509 2.2320001
0.86990553 0.52091432 2.2350001
0.8768943 0.52161354 2.2380002
0.89809793 0.53070331 2.2770002
0.9020353 0.52953792 2.2720001
0.90874416 0.53000408 2.2740002
0.9158656 0.53070331 2.2770002
0.92300266 0.53140253 2.2800002
0.93422955 0.53443247 2.2930002
0.94142371 0.53513163 2.296
0.94739574 0.53513163 2.296
0.95378298 0.53536475 2.2970002
0.95975757 0.53536475 2.2970002
0.96573216 0.53536475 2.2970002
0.97128361 0.53513163 2.296
0.97683001 0.53489858 2.2950001
0.98194301 0.53443247 2.2930002
0.9823063 0.53140253 2.2800002
0.98953682 0.53210169 2.283
0.9967832 0.53280091 2.286
1.0036064 0.53326708 2.2880001
1.0117638 0.53443247 2.2930002
1.0190595 0.53513163 2.296
1.0268173 0.53606397 2.3000002
1.0345958 0.53699625 2.3040001
1.0428468 0.53816158 2.309
1.0506697 0.53909391 2.3130002
1.0571426 0.53932697 2.3140001
1.0636209 0.53956002 2.3150001
1.0687183 0.53909391 2.3130002
1.0733405 0.53839469 2.3100002
1.0774798 0.53746235 2.306
1.0853573 0.53839469 2.3100002
1.0904207 0.53792852 2.3080001
1.0945237 0.53699625 2.3040001
1.0995612 0.53653008 2.302
1.1055487 0.53653008 2.302
1.1115364 0.53653008 2.302
1.1180094 0.53676319 2.3030002
1.1210713 0.53536475 2.2970002
1.1285179 0.53606397 2.3000002
1.1359801 0.53676319 2.3030002
1.1444495 0.53792852 2.3080001
1.1519481 0.53862774 2.3110001
1.1584601 0.5388608 2.312
1.1639701 0.53862774 2.3110001
1.1694748 0.53839469 2.3100002
1.1744654 0.53792852 2.3080001
1.1625671 0.52977097 2.273
-1.8453679 0.82626718 3.5060003
-1.8341534 0.82532448 3.5020001
-1.8026354 0.81519055 3.4590001
-1.7946756 0.81566191 3.4610002
-1.7898009 0.81754726 3.4690001
-1.7802646 0.81731158 3.4680002
-1.7702228 0.81684023 3.4660001
-1.7429144 0.80835605 3.4300001
-1.7334874 0.80812037 3.4290001
-1.7235625 0.80764902 3.427
-1.6961365 0.79892915 3.3900001
-1.6868211 0.79869348 3.3890002
-1.6601815 0.79020929 3.3530002
-1.6509677 0.78997362 3.3520002
-1.6167727 0.77771866 3.3000002
-1.6067271 0.77701163 3.2970002
-1.5957279 0.77583325 3.2920001
-1.5808976 0.77276951 3.279
-1.5718893 0.77253383 3.2780001
-1.5614554 0.77159119 3.2740002
-1.5524653 0.77135551 3.2730002
-1.5349894 0.76687777 3.2540002
-1.5274638 0.76734906 3.256
-1.5194614 0.76758474 3.2570002
-1.5114536 0.76782042 3.2580001
-1.5039022 0.76829177 3.2600002
-1.4963402 0.76876307 3.2620001
-1.4883118 0.7689988 3.2630002
-1.5043144 0.78172511 3.3170002
-1.4938833 0.7807824 3.3130002
-1.4852659 0.7807824 3.3130002
-1.4989344 0.792566 3.3630002
-1.4906301 0.79280168 3.3640001
-1.4823208 0.79303735 3.3650002
-1.4867057 0.80010754 3.3950002
-1.4774398 0.79987186 3.3940001
-1.4681791 0.79963619 3.3930001
-1.4584937 0.79916489 3.3910003
-1.4496735 0.79916489 3.3910003
-1.4404284 0.79892915 3.3900001
-1.4138741 0.78903091 3.348
-1.4034871 0.7880882 3.3440001
-1.3772709 0.77818996 3.302
-1.3670243 0.77724731 3.2980001
-1.3481487 0.77135551 3.2730002
-1.3240821 0.76239997 3.2350001
-1.3144475 0.76169294 3.2320001
-1.2939181 0.75462276 3.2020001
-1.2847866 0.7541514 3.2
-1.2684853 0.74943799 3.1800001
-1.2582327 0.7482596 3.1750002
-1.2503681 0.74849528 3.1760001
-1.2428893 0.74896663 3.1780002
-1.2346233 0.74896663 3.1780002
-1.2275149 0.74967366 3.1810002
-1.2188575 0.74943799 3.1800001
-1.2113477 0.74990934 3.1820002
-1.2042055 0.75061637 3.1850002
-1.1981741 0.75203037 3.1910002
-1.1913657 0.75297308 3.1950002
-1.1871285 0.75556546 3.2060001
-1.1835694 0.7586292 3.2190001
-1.1762919 0.75933623 3.2220001
-1.1689988 0.7600432 3.2250001
-1.1613302 0.76051462 3.2270002
-1.1650841 0.76852745 3.2610002
-1.1573116 0.7689988 3.2630002
-1.1481203 0.76852745 3.2610002
-1.149773 0.77536196 3.2900002
-1.1415625 0.77559763 3.2910001
-1.1326582 0.77536196 3.2900002
-1.1237592 0.77512628 3.2890003
-1.1141871 0.77441925 3.2860003
-1.1049671 0.77394789 3.2840002
-1.0940882 0.77229822 3.2770002
-1.0706576 0.76169294 3.2320001
-1.0632371 0.76239997 3.2350001
-1.0424322 0.75344443 3.1970003
-1.0331463 0.7527374 3.1940002
-1.0206674 0.74967366 3.1810002
-1.0092108 0.74731696 3.1710002
-1.0006472 0.74708122 3.1700001
-0.99146277 0.74637419 3.1670001
-0.98229384 0.74566722 3.164
-0.9728328 0.74472451 3.1600001
-0.96369773 0.74401748 3.1570001
-0.95518357 0.74378186 3.1560001
-0.94547451 0.74260348 3.1510003
-0.93668371 0.74213213 3.1490002
-0.92937756 0.74283916 3.1520002
-0.92059457 0.7423678 3.1500001
-0.9121117 0.74213213 3.1490002
-0.90449512 0.74260348 3.1510003
-0.89942819 0.74519587 3.1620002
-0.88894892 0.74331045 3.154
-0.88046604 0.74307483 3.1530001
-0.87254155 0.74331045 3.154
-0.86433792 0.74331045 3.154
-0.85640574 0.74354619 3.1550002
-0.84819943 0.74354619 3.1550002
-0.84025943 0.74378186 3.1560001
-0.83178693 0.74354619 3.1550002
-0.82253647 0.74260348 3.1510003
-0.81666654 0.74472451 3.1600001
-0.80819148 0.74448884 3.1590002
-0.80022794 0.74472451 3.1600001
-0.79276061 0.74543154 3.1630001
-0.78502959 0.7459029 3.1650002
-0.7772882 0.74637419 3.1670001
-0.76880783 0.74613857 3.1660001
-0.7600925 0.74566722 3.164
-0.75162518 0.74543154 3.1630001
-0.74316311 0.74519587 3.1620002
-0.73424137 0.74448884 3.1590002
-0.72625446 0.74472451 3.1600001
-0.71826243 0.74496025 3.1610003
-0.71857631 0.75391573 3.1990001
-0.71847045 0.76263559 3.2360001
-0.71115065 0.76381397 3.2410002
-0.71117681 0.77300525 3.2800002
-0.71399909 0.78549588 3.3330002
-0.71527594 0.79657245 3.3800001
-0.71484524 0.80599934 3.4200001
-0.70636249 0.80647069 3.4220002
-0.70214951 0.81189114 3.4450002
-0.69278651 0.81141979 3.4430001
-0.68343395 0.81094849 3.4410002
-0.66487914 0.79940051 3.3920002
-0.65547615 0.79869348 3.3890002
-0.63731146 0.78714556 3.3400002
-0.62674189 0.78478885 3.3300002
-0.61436826 0.78007537 3.3100002
-0.18670398 0.47841483 2.0300002
-0.17605698 0.47817913 2.029
-0.17077948 0.47817913 2.029
-0.16542041 0.47794348 2.0280001
-0.15998757 0.4774721 2.026
-0.1550997 0.47865048 2.0310001
-0.149817 0.47865048 2.0310001
-0.14460544 0.47888616 2.0320001
-0.13925157 0.47865048 2.0310001
-0.13396887 0.47865048 2.0310001
-0.12868617 0.47865048 2.0310001
-0.12334272 0.47841483 2.0300002
-0.1180626 0.47841483 2.0300002
-0.11272693 0.47817913 2.029
-0.10729056 0.4774721 2.026
-0.10166837 0.47582242 2.0190001
-0.096273609 0.47511539 2.016
-0.091029912 0.47511539 2.016
-0.085616015 0.47417271 2.0120001
-0.08030282 0.47370133 2.01
-0.074962698 0.47299439 2.0070002
-0.069672912 0.472523 2.0050001
-0.064393528 0.47205165 2.003
-0.059124563 0.47158033 2.0010002
-0.053812101 0.47063762 1.9970001
-0.048617829 0.47063762 1.9970001
-0.0434453 0.4708733 1.9980001
-0.038478147 0.47370133 2.01
-0.033101182 0.47158033 2.0010002
-0.027994096 0.47323003 2.0080001
-0.022725854 0.47228736 2.0040002
-0.017522113 0.472523 2.0050001
-0.012331586 0.47346568 2.0090001
-0.0070990291 0.47299439 2.0070002
-0.0018778108 0.47275865 2.006
0.0033348748 0.47205165 2.003
0.0085362205 0.47158033 2.0010002
0.013727161 0.47110897 1.9990001
0.01889823 0.47040194 1.9960001
0.024077833 0.4701663 1.9950001
0.029281572 0.47040194 1.9960001
0.034490515 0.47063762 1.9970001
0.039724529 0.47110897 1.9990001
0.044968951 0.47158033 2.0010002
0.050273921 0.472523 2.0050001
0.055433646 0.47205165 2.003
0.061703198 0.48030019 2.0380001
0.067563027 0.4843066 2.0550001
0.073440336 0.48784173 2.0700002
0.079776466 0.4937335 2.095
0.085510395 0.4953832 2.102
0.091237471 0.49679723 2.108
0.097500466 0.50080365 2.125
0.10336706 0.50245339 2.1320002
0.10937223 0.50457442 2.141
0.11520948 0.5057528 2.1460001
0.12107273 0.50693113 2.151
0.12690312 0.50787389 2.1550002
0.13275431 0.50881654 2.1590002
0.13862631 0.50975925 2.1630001
0.14451912 0.51070189 2.1670001
0.15029415 0.51117325 2.1690001
0.15629525 0.51235163 2.174
0.16202441 0.51258731 2.1750002
0.1686068 0.51541537 2.187
0.17453435 0.5161224 2.1900001
0.1838517 0.526492 2.2340002
0.18991712 0.52719897 2.237
0.19564813 0.52696329 2.2360001
0.20119375 0.52625626 2.233
0.20718727 0.52672762 2.2350001
0.2131912 0.52719897 2.237
0.21910763 0.52743465 2.2380002
0.22492874 0.52743465 2.2380002
0.23074988 0.52743465 2.2380002
0.23625387 0.52672762 2.2350001
0.24185055 0.52625626 2.233
0.24732594 0.52554923 2.23
0.25199118 0.52319252 2.22
0.25741714 0.52248549 2.217
0.26294622 0.5220142 2.2150002
0.26446158 0.51376563 2.1800001
0.27050358 0.51447266 2.1830001
0.27567559 0.51353002 2.1790001
0.28095591 0.51282299 2.1760001
0.28608888 0.51188028 2.1720002
0.29120108 0.51093763 2.1680002
0.29547092 0.50858086 2.158
0.30080491 0.50810951 2.1560001
0.30669698 0.50858086 2.158
0.31231004 0.50858086 2.158
0.31807041 0.50881654 2.1590002
0.32383597 0.50905222 2.1600001
0.32975927 0.50952357 2.1620002
0.33569294 0.50999486 2.164
0.34179479 0.51070189 2.1670001
0.34791219 0.51140893 2.1700001
0.35420817 0.51235163 2.174
0.36135262 0.51447266 2.1830001
0.36770317 0.51541537 2.187
0.37407461 0.51635808 2.1910002
0.38618684 0.52507794 2.2280002
0.39286157 0.52625626 2.233
0.39938381 0.52719897 2.237
0.41226664 0.53639019 2.276
