# .PCD v0.7 - Point Cloud Data file format
VERSION 0.7
FIELDS x y z
SIZE 4 4 4
TYPE F F F
COUNT 1 1 1
WIDTH 1546
HEIGHT 1
VIEWPOINT 0 0 0 1 0 0 0
POINTS 1546
DATA ascii
0.34375501 1.0183123 2.8470001
0.35152853 1.0193855 2.8500001
0.35994732 1.0222468 2.858
0.37187847 1.0347656 2.8930001
0.38005733 1.036554 2.8980002
0.38826215 1.0383424 2.9030001
0.39608395 1.0390577 2.9050002
0.3998867 1.0294003 2.878
0.40694618 1.0283275 2.8750002
0.41399002 1.0272543 2.8720002
0.41573539 1.0133048 2.8330002
0.4229531 1.0129471 2.832
0.43016562 1.0125895 2.8310001
0.4372184 1.0118742 2.8290002
0.44536084 1.0136626 2.8340001
0.45289025 1.0140202 2.835
0.45945078 1.0122318 2.8300002
0.46664515 1.0118742 2.8290002
0.4736667 1.0111588 2.8270001
0.48220921 1.0136626 2.8340001
0.48940617 1.0133048 2.8330002
0.49519506 1.0100857 2.8240001
0.50787729 1.0208161 2.8540001
0.52143782 1.0329772 2.8880002
0.52949739 1.0340502 2.891
0.54481691 1.0490727 2.9330001
0.56129676 1.0658838 2.9800003
0.58088529 1.0880598 3.0420001
0.59673166 1.1027247 3.0830002
0.61279118 1.1173894 3.1240001
0.62489015 1.1245431 3.1440001
0.633066 1.1245431 3.1440001
0.64124179 1.1245431 3.1440001
0.64921105 1.1241853 3.1430001
0.65069121 1.1127396 3.1110001
0.65433431 1.1052284 3.0900002
0.66301274 1.1063014 3.0930002
0.66389632 1.094498 3.0600002
0.67075586 1.0927095 3.0550001
0.6720354 1.0819793 3.0250001
0.67922753 1.0809062 3.0220001
0.68663138 1.0801909 3.0200002
0.6940248 1.0794755 3.0180001
0.70140779 1.07876 3.016
0.70901561 1.0784024 3.0150001
0.71685594 1.0784024 3.0150001
0.72445595 1.0780448 3.0140002
0.73253673 1.0784024 3.0150001
0.74086821 1.0791178 3.0170002
0.74896193 1.0794755 3.0180001
0.75731158 1.0801909 3.0200002
0.76541835 1.0805485 3.0210001
0.77327436 1.0805485 3.0210001
0.78113025 1.0805485 3.0210001
0.78898621 1.0805485 3.0210001
0.79657847 1.0801909 3.0200002
0.80389905 1.0794755 3.0180001
0.81389898 1.0823369 3.0260003
0.82068169 1.0809062 3.0220001
0.82771766 1.0798331 3.0190001
0.83473814 1.07876 3.016
0.84146357 1.0773294 3.0120001
0.84873223 1.076614 3.0100002
0.85599047 1.0758986 3.0080001
0.86381257 1.0758986 3.0080001
0.87250412 1.0769718 3.0110002
0.88121122 1.0780448 3.0140002
0.88934386 1.0784024 3.0150001
0.89599395 1.0769718 3.0110002
0.91282916 1.087702 3.0410001
0.9201315 1.0869867 3.039
0.9274236 1.0862714 3.0370002
0.94764018 1.1005785 3.0770001
0.95905805 1.1045129 3.0880001
0.96520925 1.1023669 3.0820003
0.97701317 1.1066591 3.0940001
0.99970424 1.1231123 3.1400001
1.0101166 1.1256161 3.1470001
1.0170059 1.1241853 3.1430001
1.0264838 1.1256161 3.1470001
1.0379552 1.1291928 3.1570001
1.0451705 1.1281198 3.154
1.0520365 1.1266891 3.1500001
1.0578719 1.1241853 3.1430001
1.0646884 1.1227547 3.1390002
1.0714841 1.1213239 3.1350002
1.0717158 1.1130973 3.1120002
1.0787674 1.1120243 3.1090002
1.0858035 1.1109513 3.1060002
1.0836672 1.1005785 3.0770001
1.0884756 1.0973594 3.0680001
1.0885915 1.0894905 3.0460002
1.0968724 1.0898482 3.0470002
1.0931932 1.0784024 3.0150001
1.0992078 1.076614 3.0100002
1.1055639 1.0751833 3.006
1.1122698 1.0741104 3.0030003
1.1200789 1.0741104 3.0030003
1.1286392 1.0748256 3.0050001
1.1368316 1.0751833 3.006
1.1503605 1.0805485 3.0210001
1.1632005 1.0851984 3.0340002
1.1726342 1.086629 3.0380001
1.1817002 1.087702 3.0410001
1.1939112 1.0916365 3.052
1.203423 1.0930673 3.0560002
1.2145411 1.0959287 3.0640001
1.2241048 1.0973594 3.0680001
1.2421228 1.1063014 3.0930002
1.2509743 1.1070167 3.095
1.2618703 1.1095206 3.1020002
1.2707556 1.1102358 3.1040001
1.2792395 1.1105936 3.1050003
1.2856555 1.1091628 3.1010001
1.2945539 1.1098782 3.1030002
1.3005241 1.1080898 3.098
1.3111147 1.1102358 3.1040001
1.3051616 1.0984324 3.0710001
1.3114372 1.0970018 3.0670002
1.3185524 1.0962864 3.0650001
1.3256572 1.095571 3.0630002
1.3336223 1.095571 3.0630002
1.3411496 1.0952133 3.062
1.3486716 1.0948557 3.0610001
1.3610635 1.0984324 3.0710001
1.368158 1.0977172 3.0690002
1.3747935 1.0966442 3.0660002
1.3814135 1.095571 3.0630002
1.3852962 1.0923519 3.0540001
1.3918694 1.0912789 3.0510001
1.3975095 1.0894905 3.0460002
1.3957409 1.0819793 3.0250001
1.4026793 1.0812639 3.0230002
1.4091407 1.0801909 3.0200002
1.4165248 1.0798331 3.0190001
1.4267347 1.0816215 3.0240002
1.4355472 1.0823369 3.0260003
1.4453242 1.0837677 3.0300002
1.4541627 1.0844829 3.0320001
1.4606006 1.0834099 3.029
1.484476 1.0952133 3.062
1.4968252 1.0984324 3.0710001
1.5062813 1.0995055 3.0740001
1.5167382 1.1012939 3.0790002
1.5272208 1.1030823 3.0840001
1.5382276 1.1052284 3.0900002
-1.0386426 0.68993533 1.9150001
-1.0369014 0.69209701 1.9210001
-1.035129 0.69425869 1.927
-1.03386 0.69678068 1.9340001
-1.0320224 0.6989423 1.9400001
-1.0301538 0.70110399 1.9460001
-1.0277271 0.70290542 1.9510001
-1.0257987 0.7050671 1.9570001
-1.023839 0.70722872 1.9630001
-1.0223671 0.70975071 1.9700001
-1.0198259 0.71155214 1.9750001
-1.017259 0.71335351 1.9800001
-1.0131325 0.71407408 1.9820001
-1.009504 0.71515489 1.9850001
-1.00586 0.7162357 1.988
-1.0016971 0.71695632 1.9900001
-0.994519 0.7155152 1.9860001
-0.98935455 0.7155152 1.9860001
-0.98815459 0.71839744 1.9940001
-0.98296928 0.71839744 1.9940001
-0.97876471 0.71911794 1.9960001
-0.96869653 0.7155152 1.9860001
-0.96401727 0.71587545 1.9870001
-0.9593327 0.7162357 1.988
-0.96040255 0.72091937 2.0010002
-0.95663118 0.72200024 2.0040002
-0.95236927 0.72272074 2.006
-0.94809717 0.72344136 2.0080001
-0.94334501 0.72380161 2.0090001
-0.93812066 0.72380161 2.0090001
-0.93243206 0.72344136 2.0080001
-0.92628676 0.72272074 2.006
-0.9256618 0.72632354 2.016
-0.91996282 0.72596329 2.0150001
-0.91018337 0.72236049 2.0050001
-0.90406668 0.72163993 2.003
-0.89840925 0.72127968 2.0020001
-0.89320314 0.72127968 2.0020001
-0.88666636 0.72019881 1.9990001
-0.88190901 0.72055906 2
-0.87802315 0.72163993 2.003
-0.87891507 0.72668386 2.0170002
-0.87453622 0.72740442 2.0190001
-0.86971641 0.72776467 2.02
-0.86232376 0.72596329 2.0150001
-0.85793465 0.72668386 2.0170002
-0.85311228 0.72704417 2.0180001
-0.84870476 0.72776467 2.02
-0.84178174 0.72632354 2.016
-0.83778405 0.72740442 2.0190001
-0.83377081 0.72848523 2.0220001
-0.82892239 0.72884548 2.023
-0.824476 0.7295661 2.0250001
-0.81718737 0.72776467 2.02
-0.81233644 0.72812498 2.0210001
-0.80987632 0.73064691 2.0280001
-0.80579287 0.73172778 2.0310001
-0.80129957 0.73244828 2.033
-0.79718751 0.73352915 2.036
-0.79305989 0.73460996 2.039
-0.78853023 0.73533058 2.0410001
-0.78360641 0.73569083 2.0420001
-0.77829635 0.73569083 2.0420001
-0.77260768 0.73533058 2.0410001
-0.76617229 0.73424971 2.0380001
-0.75975257 0.7331689 2.0350001
-0.75260699 0.73136753 2.0300002
-0.74291033 0.72704417 2.0180001
-0.73254508 0.72200024 2.0040002
-0.72588193 0.72055906 2
-0.7188794 0.71875769 1.9950001
-0.71261829 0.71767688 1.9920001
-0.70672786 0.71695632 1.9900001
-0.70120049 0.71659601 1.9890001
-0.69672799 0.71731657 1.9910001
-0.6925925 0.71839744 1.9940001
-0.68844146 0.71947825 1.9970001
-0.68495905 0.72127968 2.0020001
-0.6787343 0.72019881 1.9990001
-0.67420995 0.72091937 2.0010002
-0.67000943 0.72200024 2.0040002
-0.66512984 0.72236049 2.0050001
-0.65991592 0.72236049 2.0050001
-0.65437549 0.72200024 2.0040002
-0.6485163 0.72127968 2.0020001
-0.64266753 0.72055906 2
-0.63619167 0.71911794 1.9960001
-0.6300528 0.71803713 1.9930001
-0.6273784 0.72091937 2.0010002
-0.62062019 0.71911794 1.9960001
-0.61357975 0.71695632 1.9900001
-0.60748762 0.71587545 1.9870001
-0.60080487 0.71407408 1.9820001
-0.59474921 0.7129932 1.9790001
-0.58900708 0.71227264 1.9770001
-0.5835706 0.71191239 1.9760001
-0.57843214 0.71191239 1.9760001
-0.57358378 0.71227264 1.9770001
-0.56901771 0.7129932 1.9790001
-0.56444132 0.71371377 1.9810001
-0.55985445 0.71443433 1.983
-0.55581665 0.71587545 1.9870001
-0.55175811 0.71731657 1.9910001
-0.54740417 0.71839744 1.9940001
-0.54303461 0.71947825 1.9970001
-0.5386495 0.72055906 2
-0.53371537 0.72091937 2.0010002
-0.52851182 0.72091937 2.0010002
-0.52330834 0.72091937 2.0010002
-0.51784587 0.72055906 2
-0.51187605 0.71947825 1.9970001
-0.50592178 0.71839744 1.9940001
-0.49948084 0.71659601 1.9890001
-0.49256891 0.71407408 1.9820001
-0.48643112 0.71263295 1.978
-0.48007086 0.71083152 1.973
-0.47397727 0.7093904 1.9690001
-0.46766639 0.70758903 1.9640001
-0.46161702 0.70614791 1.96
-0.4560543 0.70542735 1.9580001
-0.45050198 0.70470679 1.9560001
-0.44518778 0.70434648 1.955
-0.44010389 0.70434648 1.955
-0.43524253 0.70470679 1.9560001
-0.43037599 0.7050671 1.9570001
-0.42550421 0.70542735 1.9580001
-0.42062724 0.70578766 1.9590001
-0.41616932 0.70686847 1.9620001
-0.41148627 0.70758903 1.9640001
-0.40658587 0.70794934 1.9650002
-0.40454069 0.71335351 1.9800001
-0.39979523 0.71407408 1.9820001
-0.39464113 0.71407408 1.9820001
-0.38712889 0.70975071 1.9700001
-0.38200602 0.70975071 1.9700001
-0.37650049 0.70903015 1.9680001
-0.37119409 0.7086699 1.9670001
-0.36589289 0.70830959 1.9660001
-0.3604134 0.70758903 1.9640001
-0.35512519 0.70722872 1.9630001
-0.35019884 0.70758903 1.9640001
-0.34526727 0.70794934 1.9650002
-0.34050357 0.7086699 1.9670001
-0.33590001 0.70975071 1.9700001
-0.33144876 0.71119183 1.9740001
-0.327142 0.7129932 1.9790001
-0.32280922 0.71479464 1.9840001
-0.31877068 0.71731657 1.9910001
-0.31564078 0.72200024 2.0040002
-0.31011963 0.72127968 2.0020001
-0.30948266 0.73208803 2.0320001
-0.3100943 0.75946927 2.108
-0.31703982 0.79045331 2.194
-0.32751134 0.83152521 2.3080001
-0.33474323 0.86575174 2.4030001
-0.33861026 0.89241248 2.4770002
-0.34598139 0.92952126 2.5800002
-0.35018679 0.95942444 2.6630001
-0.3534449 0.98788649 2.7420001
-0.35490286 1.0123855 2.8100002
-0.3475956 1.0123855 2.8100002
-0.34089383 1.0141869 2.8150001
-0.33345506 1.0138266 2.8140001
-0.32613739 1.0138266 2.8140001
-0.32301173 1.0271569 2.8510001
-0.31659412 1.0303996 2.8600001
-0.30948114 1.0314803 2.8630002
-0.30256352 1.0332817 2.868
-0.30035314 1.051656 2.9190001
-0.29266211 1.0512958 2.9180002
-0.28556246 1.0530971 2.9230001
-0.28128967 1.065707 2.9580002
-0.27369002 1.0660672 2.9590001
-0.26635486 1.0675082 2.9630001
-0.25917348 1.06967 2.9690001
-0.25255373 1.0743536 2.9820001
-0.24512757 1.0757947 2.9860001
-0.23783956 1.0779564 2.9920001
-0.23028971 1.0790372 2.9950001
-0.22316997 1.0822798 3.0040002
-0.21571665 1.0840812 3.0090001
-0.20899735 1.0898457 3.0250001
-0.20359109 1.1031759 3.062
-0.1957563 1.1038965 3.0640001
-0.18742079 1.1017349 3.0580001
-0.1795273 1.1020951 3.0590003
-0.17162861 1.1024554 3.0600002
-0.16361773 1.1020951 3.0590003
-0.15561207 1.1017349 3.0580001
-0.14751503 1.100654 3.0550001
-0.1381087 1.0891252 3.0230002
-0.12865338 1.0757947 2.9860001
-0.11918806 1.060663 2.9440002
-0.10963809 1.042649 2.8940001
-0.10020705 1.023194 2.8400002
-0.09066464 0.99941546 2.7740002
-0.082518399 0.98824674 2.743
-0.073763885 0.96699029 2.684
-0.066809155 0.9673506 2.6850002
-0.058534592 0.94645435 2.6270001
-0.051585115 0.94429266 2.6210001
-0.044837665 0.94573385 2.6250002
-0.038025957 0.9460941 2.6260002
-0.031256571 0.94789547 2.631
-0.024414789 0.94789547 2.631
-0.017573001 0.94789547 2.631
-0.01061701 0.93780768 2.6030002
-0.0038465578 0.93744743 2.6020002
0.0028738077 0.92267591 2.5610001
0.0094553884 0.91511005 2.5400002
0.015864519 0.90394139 2.5090001
0.022121346 0.89313298 2.4790001
0.028164525 0.88052315 2.444
0.034505904 0.88016289 2.4430001
0.040039286 0.86250919 2.3940001
0.046226118 0.86178869 2.3920002
0.052402545 0.86106813 2.3900001
0.058028992 0.8524214 2.3660002
0.064208783 0.85278171 2.3670001
0.070393778 0.85314196 2.368
0.076551646 0.85314196 2.368
0.083547793 0.86178869 2.3920002
0.090818867 0.87187648 2.4200001
0.09867698 0.88592738 2.4590001
0.10678066 0.90033859 2.4990001
0.11513772 0.91511005 2.5400002
0.12433109 0.93456513 2.5940001
0.13274418 0.94645435 2.6270001
0.1420196 0.96302724 2.6730001
0.15225877 0.98428375 2.7320001
0.16268812 1.0048196 2.789
0.17000173 1.00518 2.7900002
0.18030655 1.0224733 2.8380001
0.18848023 1.0267967 2.8500001
0.19623518 1.0285981 2.855
0.2072262 1.0466121 2.9050002
0.21485443 1.0469724 2.9060001
0.22248788 1.0473326 2.9070001
0.23020568 1.0480533 2.9090002
0.23777038 1.0480533 2.9090002
0.24432306 1.0437298 2.8970001
0.25203043 1.0444504 2.8990002
0.25965866 1.0448107 2.9000001
0.26729211 1.0451709 2.901
0.27512023 1.0462518 2.904
0.27936244 1.0340023 2.8700001
0.28652591 1.0329214 2.8670001
0.29346871 1.0311201 2.8620002
0.29933411 1.0257158 2.8470001
0.30619889 1.0239145 2.8420002
0.30939642 1.0102239 2.8040001
0.31646216 1.0095032 2.802
0.32374862 1.0095032 2.802
0.33564267 1.0235542 2.8410001
0.34351349 1.0249953 2.845
0.35128182 1.0260761 2.848
0.36322188 1.0390462 2.8840001
0.3713643 1.0408477 2.8890002
0.3791393 1.0415682 2.891
0.38692468 1.0422888 2.8930001
0.39458412 1.042649 2.8940001
0.40197092 1.0422888 2.8930001
0.40921089 1.0415682 2.891
0.41499904 1.0372448 2.8790002
0.42013782 1.0314803 2.8630002
0.42713484 1.0303996 2.8600001
0.43016562 1.0199513 2.8310001
0.43737295 1.0195911 2.8300002
0.44504651 1.0203116 2.832
0.45273051 1.0210322 2.8340001
0.45961311 1.0199513 2.8310001
0.46681008 1.0195911 2.8300002
0.4740018 1.0192308 2.8290002
0.48254952 1.0217528 2.8360002
0.48992443 1.0217528 2.8360002
0.50028026 1.0278776 2.8530002
0.50823319 1.0289584 2.8560002
0.52107668 1.0397668 2.8860002
0.53462571 1.051656 2.9190001
0.5450027 1.0570602 2.9340003
0.56110835 1.0732727 2.9790001
0.58012146 1.0945293 3.0380001
0.59750587 1.112183 3.0870001
0.61279118 1.1255133 3.1240001
0.61892748 1.1219105 3.1140001
0.63367003 1.1337997 3.1470001
0.64185363 1.1337997 3.1470001
0.6498307 1.1334394 3.1460001
0.65069121 1.1208296 3.1110001
0.65391076 1.1125432 3.0880001
0.66322708 1.1147048 3.0940001
0.6634624 1.1017349 3.0580001
0.67053628 1.1002938 3.0540001
0.6727019 1.0909264 3.0280001
0.67967707 1.0894854 3.0240002
0.68935966 1.0923675 3.0320001
0.69655436 1.0912867 3.029
0.70373344 1.0902059 3.0260003
0.71136725 1.0898457 3.0250001
0.71661824 1.0858825 3.0140002
0.72421563 1.0855223 3.0130002
0.73229378 1.0858825 3.0140002
0.74037707 1.0862428 3.0150001
0.74846554 1.086603 3.016
0.75681007 1.0873237 3.0180001
0.76491159 1.0876839 3.0190001
0.77276236 1.0876839 3.0190001
0.78061306 1.0876839 3.0190001
0.78846389 1.0876839 3.0190001
0.79605091 1.0873237 3.0180001
0.80336624 1.086603 3.016
0.81336105 1.0894854 3.0240002
0.82013857 1.0880443 3.0200002
0.82716936 1.0869634 3.0170002
0.83418465 1.0858825 3.0140002
0.8411842 1.0848017 3.0110002
0.84816831 1.0837209 3.0080001
0.8554213 1.0830003 3.006
0.86295104 1.0826401 3.0050001
0.86873704 1.0801181 2.9980001
0.87711799 1.0808387 3.0000002
0.88521427 1.0811989 3.0010002
0.89510125 1.0837209 3.0080001
0.90232307 1.0830003 3.006
0.91922325 1.0938088 3.0360003
0.92711824 1.0938088 3.0360003
0.93593711 1.0948895 3.039
0.94415045 1.0952499 3.0400002
1.0323659 1.1312778 3.1400001
1.0402 1.1309175 3.1390002
1.0476948 1.1301969 3.1370001
1.0565256 1.1309175 3.1390002
1.0633317 1.1294764 3.1350002
1.0704588 1.1283956 3.1320002
1.0717158 1.12119 3.1120002
1.0787674 1.1201091 3.1090002
1.0858035 1.1190283 3.1060002
1.0829628 1.1078596 3.075
1.0888305 1.105698 3.0690002
1.0878767 1.0966909 3.0440001
1.0777932 1.0786769 2.9940002
1.0855789 1.0786769 2.9940002
1.0984774 1.0837209 3.0080001
1.1040927 1.0815592 3.0020001
1.1111585 1.0808387 3.0000002
1.1189599 1.0808387 3.0000002
1.1275125 1.0815592 3.0020001
1.1356971 1.0819196 3.0030003
1.1442679 1.0826401 3.0050001
1.1632005 1.0930882 3.0340002
1.1722482 1.094169 3.0370002
1.1813116 1.0952499 3.0400002
1.1958672 1.1013746 3.0570002
1.2049981 1.1024554 3.0600002
1.2264328 1.1147048 3.0940001
1.2364736 1.1165063 3.0990002
1.2441307 1.116146 3.098
1.2533995 1.1172268 3.1010001
1.2634975 1.1190283 3.1060002
1.2723932 1.1197488 3.108
1.2788275 1.1183077 3.1040001
1.2864847 1.1179475 3.1030002
1.2974743 1.1204693 3.1100001
1.3059814 1.1208296 3.1110001
1.3119595 1.1190283 3.1060002
1.3068616 1.1078596 3.075
1.3122925 1.105698 3.0690002
1.3194128 1.1049774 3.0670002
1.3265228 1.1042567 3.0650001
1.3349286 1.1046171 3.0660002
1.3420255 1.1038965 3.0640001
1.3495528 1.1035362 3.0630002
1.3615066 1.1067787 3.072
1.368158 1.105698 3.0690002
1.3747935 1.1046171 3.0660002
1.3814135 1.1035362 3.0630002
1.384389 1.0995731 3.052
1.3909571 1.0984924 3.0490003
1.3961329 1.0963306 3.0430002
1.3975865 1.0912867 3.029
1.4040713 1.0902059 3.0260003
1.4105405 1.0891252 3.0230002
1.4179324 1.0887648 3.0220001
1.4272064 1.0898457 3.0250001
1.4360216 1.0905662 3.0270002
1.4453242 1.091647 3.0300002
1.4541627 1.0923675 3.0320001
1.4610829 1.091647 3.0300002
1.4849609 1.1035362 3.0630002
1.4968252 1.1064185 3.0710001
1.5067712 1.1078596 3.075
1.5177233 1.1100212 3.0810001
1.5282114 1.1118227 3.0860002
1.5387254 1.1136241 3.0910001
-1.0375578 0.69418949 1.9130001
-1.0358218 0.69636679 1.9190001
-1.0345918 0.6989069 1.9260001
-1.0327907 0.70108414 1.932
-1.0314904 0.70362437 1.9390001
-1.0296243 0.70580161 1.9450001
-1.0272003 0.70761597 1.95
-1.0257987 0.7101562 1.9570001
-1.023839 0.71233344 1.9630001
-1.0208102 0.71378499 1.9670001
-1.0177605 0.71523649 1.9710001
-1.0146902 0.71668804 1.9750001
-1.0105766 0.71741378 1.9770001
-1.0069611 0.71850246 1.9800001
-1.0033301 0.71959102 1.983
-0.99515331 0.71741378 1.9770001
-0.98750836 0.71559936 1.9720001
-0.9808858 0.71451074 1.9690001
-0.97328764 0.71269631 1.9640001
-0.9671945 0.71197057 1.9620001
-0.96160203 0.71160769 1.9610001
-0.9569903 0.71197057 1.9620001
-0.95237339 0.71233344 1.9630001
-0.94968146 0.71414787 1.9680001
-0.94552374 0.71487361 1.9700001
-0.94278771 0.71668804 1.9750001
-0.93860126 0.71741378 1.9770001
-0.93440455 0.71813953 1.9790001
-0.92784953 0.71705091 1.9760001
-0.92224407 0.71668804 1.9750001
-0.91664386 0.71632516 1.9740001
-0.91104877 0.71596223 1.973
-0.90454066 0.71487361 1.9700001
-0.89759153 0.71342212 1.9660001
-0.8915711 0.71269631 1.9640001
-0.88962328 0.71523649 1.9710001
-0.88270283 0.71378499 1.9670001
-0.88204926 0.71741378 1.9770001
-0.88444859 0.72358274 1.9940001
-0.88058621 0.72467136 1.9970001
-0.87670809 0.72575998 2
-0.86714971 0.72213125 1.9900001
-0.86327428 0.72321987 1.9930001
-0.85981375 0.72467136 1.9970001
-0.85975605 0.7290259 2.0090001
-0.85623318 0.73047745 2.013
-0.85184401 0.7312032 2.0150001
-0.84786451 0.73229188 2.0180001
-0.84345192 0.73301756 2.02
-0.83404946 0.72938877 2.01
-0.83377081 0.73374337 2.0220001
-0.82933223 0.73446918 2.0240002
-0.8248831 0.73519486 2.026
-0.81759197 0.7333805 2.0210001
-0.81515008 0.73592067 2.0280001
-0.81067502 0.73664647 2.0300002
-0.80698317 0.73809797 2.0340002
-0.80287623 0.73918658 2.0370002
-0.79875374 0.74027526 2.0400002
-0.79461563 0.74136382 2.043
-0.7900756 0.74208963 2.0450001
-0.78475767 0.74208963 2.0450001
-0.77943981 0.74208963 2.0450001
-0.77336472 0.74136382 2.043
-0.7669242 0.74027526 2.0400002
-0.7604993 0.73918658 2.0370002
-0.75408995 0.73809797 2.0340002
-0.74254221 0.731929 2.0170002
-0.73217946 0.7268486 2.003
-0.72515613 0.7250343 1.9980001
-0.71815872 0.72321987 1.9930001
-0.71226048 0.72249407 1.9910001
-0.70637274 0.72176832 1.9890001
-0.70120049 0.72176832 1.9890001
-0.69672799 0.72249407 1.9910001
-0.6925925 0.72358274 1.9940001
-0.68878621 0.7250343 1.9980001
-0.68530113 0.7268486 2.003
-0.67941338 0.72612292 2.0010002
-0.67522073 0.72721159 2.0040002
-0.67101246 0.72830021 2.0070002
-0.66645676 0.7290259 2.0090001
-0.66123247 0.7290259 2.0090001
-0.65568161 0.72866309 2.0080001
-0.64981204 0.72793728 2.006
-0.64363152 0.7268486 2.003
-0.6368292 0.7250343 1.9980001
-0.63036889 0.72358274 1.9940001
-0.62706482 0.72575998 2
-0.61937648 0.722857 1.9920001
-0.61296308 0.72140545 1.988
-0.60626471 0.71959102 1.983
-0.60019863 0.71850246 1.9800001
-0.59414816 0.71741378 1.9770001
-0.58841121 0.71668804 1.9750001
-0.58327532 0.71668804 1.9750001
-0.57813942 0.71668804 1.9750001
-0.57329363 0.71705091 1.9760001
-0.56901771 0.71813953 1.9790001
-0.56444132 0.71886528 1.9810001
-0.5601368 0.71995395 1.9840001
-0.55609637 0.72140545 1.988
-0.55203521 0.722857 1.9920001
-0.54767871 0.72394562 1.9950001
-0.54330653 0.7250343 1.9980001
-0.53891885 0.72612292 2.0010002
-0.53398204 0.72648579 2.0020001
-0.52904004 0.7268486 2.003
-0.52330834 0.72612292 2.0010002
-0.51758695 0.72539711 1.9990001
-0.51161975 0.72430849 1.9960001
-0.50541431 0.722857 1.9920001
-0.4992297 0.72140545 1.988
-0.49232039 0.71886528 1.9810001
-0.48593929 0.71705091 1.9760001
-0.47982755 0.71559936 1.9720001
-0.47349584 0.71378499 1.9670001
-0.46742827 0.71233344 1.9630001
-0.46161702 0.71124482 1.96
-0.45582139 0.7101562 1.9570001
-0.45050198 0.70979327 1.9560001
-0.44518778 0.7094304 1.955
-0.44010389 0.7094304 1.955
-0.43502 0.7094304 1.955
-0.43015608 0.70979327 1.9560001
-0.42528692 0.7101562 1.9570001
-0.42041251 0.71051908 1.9580001
-0.41574508 0.71124482 1.96
-0.41085771 0.71160769 1.9610001
-0.40886191 0.71705091 1.9760001
-0.40433639 0.71813953 1.9790001
-0.3995935 0.71886528 1.9810001
-0.39444199 0.71886528 1.9810001
-0.38929051 0.71886528 1.9810001
-0.38394514 0.71850246 1.9800001
-0.37630922 0.71378499 1.9670001
-0.37100539 0.71342212 1.9660001
-0.36552069 0.71269631 1.9640001
-0.36022988 0.71233344 1.9630001
-0.35494429 0.71197057 1.9620001
-0.3500205 0.71233344 1.9630001
-0.34509155 0.71269631 1.9640001
-0.34033045 0.71342212 1.9660001
-0.33572951 0.71451074 1.9690001
-0.33144876 0.71632516 1.9740001
-0.327142 0.71813953 1.9790001
-0.32280922 0.71995395 1.9840001
-0.31861058 0.72213125 1.9900001
-0.31532574 0.72648579 2.0020001
-0.30996475 0.72612292 2.0010002
-0.30948266 0.73737216 2.0320001
-0.30494711 0.73918658 2.0370002
-0.30994719 0.76458818 2.1070001
-0.31660634 0.79507017 2.1910002
-0.32595041 0.83353537 2.2970002
-0.34161767 0.90683711 2.4990001
-0.34624955 0.93695617 2.582
-0.35452631 0.97832447 2.6960001
-0.35692519 1.0048147 2.7690001
-0.35818666 1.0291277 2.8360002
-0.35068807 1.0287648 2.835
-0.34065163 1.0207815 2.8130002
-0.33309957 1.0200557 2.8110001
-0.32590559 1.0204185 2.812
-0.32267183 1.0334822 2.848
-0.3139374 1.0291277 2.8360002
-0.30667061 1.0294906 2.8370001
-0.30287999 1.0418285 2.8710001
-0.29644307 1.0454572 2.881
-0.28905147 1.0458202 2.8820002
-0.28566015 1.0610611 2.924
-0.27834171 1.0621498 2.927
-0.27359751 1.0733991 2.9580002
-0.26617509 1.0744877 2.9610002
-0.25908619 1.0770279 2.9680002
-0.25289249 1.0835596 2.9860001
-0.24537385 1.0846484 2.9890001
-0.24022432 1.0966234 3.0220001
-0.23259644 1.097712 3.0250001
-0.22502723 1.0991635 3.029
-0.21808244 1.103881 3.0420001
-0.20934281 1.0995264 3.0300002
-0.20372407 1.1118643 3.0640001
-0.19588409 1.1125902 3.0660002
-0.18748207 1.11005 3.0590003
-0.17958598 1.1104128 3.0600002
-0.1716847 1.1107757 3.0610001
-0.16367123 1.1104128 3.0600002
-0.15566295 1.11005 3.0590003
-0.14751503 1.1085984 3.0550001
-0.13851987 1.1002522 3.0320001
-0.12865338 1.0835596 2.9860001
-0.11918806 1.0683187 2.9440002
-0.10971386 1.0509005 2.8960001
-0.10024232 1.0309421 2.8410001
-0.091743201 1.0186042 2.8070002
-0.082548492 0.9957428 2.7440002
-0.074863203 0.98848516 2.7240002
-0.066759385 0.97360706 2.6830001
-0.059113923 0.96272063 2.6530001
-0.052254289 0.96344644 2.6550002
-0.045384254 0.96417218 2.6570001
-0.038489338 0.96453512 2.6580002
-0.031589217 0.96489793 2.6590002
-0.02467462 0.96489793 2.6590002
-0.017753342 0.96453512 2.6580002
-0.010829106 0.96344644 2.6550002
-0.0039219512 0.96272063 2.6530001
0.0029355257 0.94929415 2.6160002
0.0096564079 0.94131076 2.5940001
0.016193317 0.92933571 2.5610001
0.022576444 0.91808647 2.5300002
0.028729199 0.90465981 2.493
0.035197999 0.90429699 2.4920001
0.040758453 0.88433856 2.437
0.04699913 0.88252419 2.4320002
0.053213794 0.88070977 2.427
0.059426982 0.87925828 2.4230001
0.06567362 0.87853247 2.421
0.071969315 0.87853247 2.421
0.078265004 0.87853247 2.421
0.085538685 0.88869315 2.4490001
0.093408331 0.90320832 2.4890001
0.10152614 0.91808647 2.5300002
0.1098999 0.93332738 2.572
0.11808415 0.94530237 2.605
0.12696727 0.96126914 2.6490002
0.13562442 0.97396988 2.684
0.14451675 0.98703361 2.72
0.15359631 1.0000973 2.756
0.16274646 1.0124352 2.7900002
0.17006265 1.0127981 2.7910001
0.18024303 1.0294906 2.8370001
0.18834795 1.0334822 2.848
0.19520418 1.0305792 2.8400002
0.2051575 1.0436429 2.8760002
0.21271032 1.0440058 2.8770001
0.22026835 1.0443686 2.878
0.22791074 1.0450944 2.8800001
0.23540002 1.0450944 2.8800001
0.242805 1.0447316 2.8790002
0.25011781 1.0440058 2.8770001
0.25742024 1.04328 2.8750002
0.26286951 1.0352967 2.8530002
0.27057281 1.0363853 2.8560002
0.27858374 1.0385627 2.8620002
0.28622609 1.0392883 2.8640001
0.28957221 1.0247731 2.8240001
0.29681075 1.0244102 2.8230002
0.3039363 1.0236845 2.8210001
0.3091757 1.0167898 2.802
0.31623629 1.016064 2.8000002
0.32351756 1.016064 2.8000002
0.33008999 1.0138868 2.7940001
0.34375501 1.0331193 2.8470001
0.3511585 1.0331193 2.8470001
0.35868788 1.0334822 2.848
0.36635107 1.0342081 2.8500001
0.37402469 1.0349338 2.8520002
0.38170862 1.0356596 2.8540001
0.38926664 1.0360224 2.855
0.39655203 1.0356596 2.8540001
0.40383217 1.0352967 2.8530002
0.409089 1.0298535 2.8380001
0.41617563 1.0291277 2.8360002
0.42340115 1.0287648 2.835
0.43077341 1.0287648 2.835
0.43783659 1.0280391 2.8330002
0.44504651 1.0276761 2.832
0.45225126 1.0273132 2.8310001
0.45928845 1.0265876 2.8290002
0.46631524 1.0258617 2.8270001
0.47333157 1.025136 2.825
0.47965696 1.0229588 2.8190002
0.48698765 1.0229588 2.8190002
0.49431831 1.0229588 2.8190002
0.50752139 1.0349338 2.8520002
0.52071553 1.0465459 2.8840001
0.52784902 1.0458202 2.8820002
0.5450027 1.06469 2.9340003
0.56092 1.0806566 2.9780002
0.57534766 1.0933576 3.0130002
0.59189272 1.1096871 3.0580001
0.6059258 1.1209364 3.0890002
0.62091506 1.1336371 3.1240001
0.62823343 1.1321856 3.1200001
0.63593888 1.1314598 3.118
0.64363396 1.1307341 3.1160002
0.64357984 1.1165818 3.0770001
0.65136969 1.1162189 3.0760002
0.65529579 1.1093242 3.0570002
0.66302848 1.1089613 3.0560002
0.66460818 1.0984378 3.0270002
0.6722576 1.0980749 3.0260003
0.6794523 1.0969863 3.0230002
0.68867761 1.0991635 3.029
0.69609445 1.0984378 3.0270002
0.70326829 1.0973492 3.0240002
0.71066177 1.0966234 3.0220001
0.71852028 1.0966234 3.0220001
0.72637886 1.0966234 3.0220001
0.73423743 1.0966234 3.0220001
0.73939478 1.0926317 3.0110002
0.74747288 1.0929946 3.0120001
0.75580698 1.0937203 3.0140002
0.76541835 1.0962605 3.0210001
0.77327436 1.0962605 3.0210001
0.7795788 1.0940832 3.0150001
0.7874192 1.0940832 3.0150001
0.79499584 1.0937203 3.0140002
0.80230081 1.0929946 3.0120001
0.80690581 1.0886401 3.0000002
0.81389248 1.0875514 2.9970002
0.82086349 1.0864627 2.9940002
0.83197045 1.0908172 3.006
0.83894926 1.0897287 3.0030003
0.84619451 1.089003 3.0010002
0.84574592 1.0784794 2.9720001
0.85318726 1.0781165 2.9710002
0.86120296 1.0784794 2.9720001
0.86863917 1.0781165 2.9710002
0.87695497 1.0788423 2.973
0.88528132 1.079568 2.9750001
0.89932132 1.0871885 2.9960001
0.91770935 1.0998893 3.0310001
0.92620212 1.1006151 3.0330002
0.93532121 1.1020666 3.0370002
0.94352925 1.1024295 3.0380001
0.94767141 1.0980749 3.0260003
1.0402 1.1390804 3.1390002
1.0473609 1.1379917 3.1360002
1.0555159 1.1379917 3.1360002
1.0626533 1.136903 3.1330001
1.0612307 1.1267425 3.1050003
1.0713713 1.1289197 3.1110001
1.0787674 1.128194 3.1090002
1.0858035 1.1271054 3.1060002
1.0808498 1.1136788 3.0690002
1.0728652 1.0973492 3.0240002
1.0818012 1.0984378 3.0270002
1.0774332 1.0860999 2.993
1.0844913 1.0853741 2.9910002
1.0816787 1.0748506 2.9620001
1.0897491 1.0752134 2.9630001
1.0970838 1.0748506 2.9620001
1.1070243 1.0770279 2.9680002
1.1166204 1.0788423 2.973
1.1345626 1.0886401 3.0000002
1.1431255 1.0893657 3.0020001
1.1632005 1.1009779 3.0340002
1.1718622 1.1017038 3.0360003
1.1910263 1.1122272 3.0650001
1.1970407 1.1104128 3.0600002
1.2057856 1.1111386 3.062
1.2264328 1.1227508 3.0940001
1.2364736 1.1245651 3.0990002
1.2453355 1.1252909 3.1010001
1.2550163 1.1267425 3.1050003
1.2647178 1.128194 3.1090002
1.2732121 1.1285568 3.1100001
1.2792395 1.1267425 3.1050003
1.2868992 1.1263795 3.1040001
1.2974743 1.1285568 3.1100001
1.3051419 1.128194 3.1090002
1.3119595 1.1271054 3.1060002
1.3072866 1.1162189 3.0760002
1.3122925 1.1136788 3.0690002
1.3194128 1.1129529 3.0670002
1.3265228 1.1122272 3.0650001
1.335364 1.1129529 3.0670002
1.3424635 1.1122272 3.0650001
1.3499933 1.1118643 3.0640001
1.3610635 1.1144044 3.0710001
1.367712 1.1133158 3.0680001
1.3743451 1.1122272 3.0650001
1.3809624 1.1111386 3.062
1.3834819 1.106784 3.0500002
1.3895885 1.1053325 3.0460002
1.3947566 1.1031553 3.0400002
1.3985094 1.0998893 3.0310001
1.4045354 1.0984378 3.0270002
1.4114736 1.097712 3.0250001
1.4188708 1.0973492 3.0240002
1.4272064 1.097712 3.0250001
1.4360216 1.0984378 3.0270002
1.4453242 1.0995264 3.0300002
1.4541627 1.1002522 3.0320001
1.47796 1.1122272 3.0650001
1.4849609 1.1115015 3.0630002
1.4914638 1.1104128 3.0600002
1.5004011 1.1111386 3.062
1.5177233 1.1180333 3.0810001
1.5282114 1.1198478 3.0860002
1.5387254 1.1216621 3.0910001
-1.0370156 0.6987986 1.9120001
-1.035282 0.70099151 1.9180001
-1.0340545 0.70354986 1.9250001
-1.0322561 0.70574272 1.9310001
-1.0304264 0.70793557 1.937
-1.0285656 0.71012849 1.9430001
-1.0266737 0.7123214 1.9490001
-1.0247502 0.71451426 1.955
-1.0222743 0.71634161 1.96
-1.0192533 0.7178036 1.9640001
-1.0162114 0.71926552 1.9680001
-1.0121213 0.71999651 1.9700001
-1.0075096 0.72036195 1.9710001
-1.0044184 0.72182387 1.9750001
-0.99624664 0.71963102 1.9690001
-0.9926365 0.72072744 1.9720001
-0.98550522 0.71926552 1.9680001
-0.97889316 0.71816909 1.9650002
-0.97130537 0.71634161 1.96
-0.9652226 0.71561068 1.9580001
-0.96013093 0.71561068 1.9580001
-0.95552701 0.71597618 1.9590001
-0.94509596 0.7119559 1.9480001
-0.93520463 0.70830107 1.9380001
-0.93064493 0.70866656 1.9390001
-0.93133098 0.71305233 1.9510001
-0.9267323 0.71341783 1.9520001
-0.92212838 0.71378326 1.9530001
-0.91282368 0.71049398 1.9440001
-0.90776837 0.71049398 1.9440001
-0.90271312 0.71049398 1.9440001
-0.89811957 0.71085942 1.9450001
-0.89811242 0.71487975 1.9560001
-0.89119977 0.71341783 1.9520001
-0.88612366 0.71341783 1.9520001
-0.87788802 0.71085942 1.9450001
-0.88360035 0.71963102 1.9690001
-0.88026464 0.72109288 1.973
-0.87335974 0.71963102 1.9690001
-0.86823946 0.71963102 1.9690001
-0.86487257 0.72109288 1.973
-0.86453515 0.72511321 1.9840001
-0.86154163 0.72694057 1.9890001
-0.85852212 0.72876799 1.9940001
-0.85761636 0.73242283 2.0040002
-0.85453176 0.73425019 2.0090001
-0.85057575 0.73534662 2.0120001
-0.8470242 0.73680854 2.016
-0.84219933 0.73717409 2.0170002
-0.83819896 0.73827046 2.02
-0.83335853 0.73863602 2.0210001
-0.82892239 0.73936689 2.023
-0.82203311 0.73790497 2.0190001
-0.81759197 0.73863602 2.0210001
-0.815552 0.7415598 2.029
-0.81107438 0.74229079 2.0310001
-0.80737984 0.74375272 2.0350001
-0.8032704 0.74484915 2.0380001
-0.79953676 0.74631107 2.0420001
-0.79539359 0.7474075 2.0450001
-0.79084831 0.74813849 2.0470002
-0.7855252 0.74813849 2.0470002
-0.77982092 0.74777293 2.046
-0.77374333 0.74704206 2.0440001
-0.76730013 0.74594557 2.0410001
-0.7608726 0.74484915 2.0380001
-0.75446063 0.74375272 2.0350001
-0.7392289 0.73388475 2.0080001
-0.73144847 0.7313264 2.0010002
-0.72370434 0.72876799 1.9940001
-0.71707773 0.72730607 1.9900001
-0.7111873 0.72657508 1.988
-0.70566243 0.72620964 1.9870001
-0.70084792 0.72657508 1.988
-0.69637811 0.72730607 1.9900001
-0.6925925 0.72876799 1.9940001
-0.68844146 0.72986442 1.9970001
-0.68598545 0.73278826 2.0050001
-0.67975295 0.73169184 2.0020001
-0.67589456 0.73315376 2.006
-0.67168105 0.73425019 2.0090001
-0.66745198 0.73534662 2.0120001
-0.66221988 0.73534662 2.0120001
-0.65666127 0.73498118 2.0110002
-0.65078384 0.73425019 2.0090001
-0.64427423 0.73278826 2.0050001
-0.64065397 0.73461562 2.01
-0.63353026 0.73242283 2.0040002
-0.62612426 0.72986442 1.9970001
-0.61875463 0.72730607 1.9900001
-0.61203814 0.72547871 1.9850001
-0.60534751 0.72365129 1.9800001
-0.59898609 0.72218937 1.9760001
-0.59324658 0.72145838 1.9740001
-0.58751744 0.72072744 1.9720001
-0.58268464 0.72109288 1.973
-0.57755399 0.72109288 1.973
-0.57271338 0.72145838 1.9740001
-0.56844264 0.72255486 1.9770001
-0.56444132 0.72401673 1.9810001
-0.5601368 0.72511321 1.9840001
-0.55609637 0.72657508 1.988
-0.55203521 0.72803706 1.9920001
-0.54767871 0.72913349 1.9950001
-0.54357845 0.73059541 1.9990001
-0.5386495 0.73096085 2
-0.53371537 0.7313264 2.0010002
-0.52851182 0.7313264 2.0010002
-0.52278531 0.73059541 1.9990001
-0.5170691 0.72986442 1.9970001
-0.51136345 0.72913349 1.9950001
-0.50516057 0.72767156 1.9910001
-0.49847636 0.72547871 1.9850001
-0.49207187 0.72365129 1.9800001
-0.48544747 0.72145838 1.9740001
-0.47934091 0.71999651 1.9700001
-0.4732551 0.71853453 1.9660001
-0.46719018 0.71707267 1.9620001
-0.46138152 0.71597618 1.9590001
-0.45582139 0.71524525 1.9570001
-0.45027167 0.71451426 1.955
-0.44496009 0.71414876 1.9540001
-0.43987879 0.71414876 1.9540001
-0.43479753 0.71414876 1.9540001
-0.42993614 0.71451426 1.955
-0.42485228 0.71451426 1.955
-0.41998309 0.71487975 1.9560001
-0.41532084 0.71561068 1.9580001
-0.41043869 0.71597618 1.9590001
-0.40824118 0.72109288 1.973
-0.40392774 0.72255486 1.9770001
-0.3991901 0.72328579 1.9790001
-0.39404377 0.72328579 1.9790001
-0.38870099 0.7229203 1.978
-0.3833634 0.72255486 1.9770001
-0.37573525 0.7178036 1.9640001
-0.37025055 0.71707267 1.9620001
-0.36496234 0.71670717 1.9610001
-0.35967934 0.71634161 1.96
-0.35458246 0.71634161 1.96
-0.34966388 0.71670717 1.9610001
-0.34491584 0.7174381 1.9630001
-0.33998424 0.7178036 1.9640001
-0.33555898 0.71926552 1.9680001
-0.33128083 0.72109288 1.973
-0.32697669 0.7229203 1.978
-0.3226465 0.72474772 1.983
-0.31845048 0.72694057 1.9890001
-0.31516826 0.7313264 2.0010002
-0.3098098 0.73096085 2
-0.30506584 0.73205727 2.003
-0.30509678 0.74484915 2.0380001
-0.30597541 0.76019937 2.0800002
-0.31617281 0.79967123 2.1880002
-0.3260923 0.83987403 2.2980001
-0.33571833 0.88080788 2.4100001
-0.34933388 0.95207649 2.605
-0.35452631 0.98533523 2.6960001
-0.36014771 1.0211524 2.7940001
-0.35818666 1.0365026 2.8360002
-0.35068807 1.036137 2.835
-0.34307364 1.0354061 2.8330002
-0.33286256 1.0266345 2.809
-0.32567382 1.0270001 2.8100002
-0.31949952 1.0306549 2.8200002
-0.31360531 1.0354061 2.8330002
-0.30645442 1.036137 2.835
-0.29929313 1.036868 2.8370001
-0.29644307 1.0529491 2.881
-0.28905147 1.0533147 2.8820002
-0.28566015 1.0686648 2.924
-0.27815154 1.0690303 2.9250002
-0.27350503 1.0807257 2.9570003
-0.26599529 1.0814567 2.9590001
-0.25917348 1.0851114 2.9690001
-0.25306189 1.0920556 2.9880002
-0.24553804 1.093152 2.9910002
-0.24030383 1.1048474 3.0230002
-0.23267335 1.1059438 3.0260003
-0.22517583 1.1077712 3.0310001
-0.2169354 1.1059438 3.0260003
-0.20968825 1.1092331 3.0350001
-0.20359109 1.119101 3.062
-0.19569242 1.1194667 3.0630002
-0.18742079 1.1176392 3.0580001
-0.1795273 1.1180047 3.0590003
-0.1716847 1.1187357 3.0610001
-0.16367123 1.1183702 3.0600002
-0.15566295 1.1180047 3.0590003
-0.14616302 1.1063093 3.0270002
-0.13842851 1.1074058 3.0300002
-0.1285672 1.0905937 2.9840002
-0.11914756 1.075609 2.9430001
-0.10978963 1.0591624 2.8980002
-0.10027762 1.0386955 2.8420002
-0.091743201 1.0259036 2.8070002
-0.083300568 1.0120153 2.7690001
-0.074890681 0.99593419 2.7250001
-0.066759385 0.98058403 2.6830001
-0.059960637 0.98350787 2.6910002
-0.053002182 0.9842388 2.6930001
-0.045930848 0.98277688 2.6890001
-0.038981676 0.98387337 2.6920002
-0.032016899 0.98496979 2.6950002
-0.025027245 0.98570073 2.697
-0.018013829 0.98570073 2.697
-0.010996334 0.98533523 2.6960001
-0.0039840401 0.98496979 2.6950002
0.002986022 0.97254342 2.661
0.0098202024 0.96413738 2.638
0.016471531 0.95207649 2.605
0.02304939 0.94403601 2.5830002
0.029270826 0.92832035 2.5400002
0.035494611 0.91845232 2.513
0.042012818 0.91808683 2.5120001
0.047849443 0.90492958 2.4760001
0.054266233 0.90456408 2.4750001
0.060677823 0.90419865 2.4740002
0.074198849 0.91223913 2.4960001
0.0807219 0.91260469 2.4970002
0.089101344 0.93234062 2.5510001
0.096523188 0.94001567 2.572
0.1045358 0.95207649 2.605
0.11319007 0.96815771 2.6490002
0.1216652 0.98094946 2.684
0.13056204 0.99556875 2.7240002
0.13769619 0.99593419 2.7250001
0.14642948 1.007264 2.756
0.15554693 1.0200559 2.7910001
0.16280478 1.0200559 2.7910001
0.17012358 1.0204214 2.7920001
0.17909944 1.0302894 2.8190002
0.18596715 1.0277309 2.812
0.19568531 1.0405228 2.8470001
0.20287481 1.0394263 2.8440001
0.21041836 1.0401573 2.8460002
0.21804886 1.0412538 2.8490002
0.22585322 1.0430812 2.8540001
0.23352009 1.0441777 2.8570001
0.2409496 1.0441777 2.8570001
0.24829213 1.0438122 2.8560002
0.25562948 1.0434467 2.855
0.26296166 1.0430812 2.8540001
0.27019385 1.0423503 2.8520002
0.27459285 1.0310203 2.8210001
0.28212857 1.0317513 2.8230002
0.28957221 1.0321168 2.8240001
0.29239485 1.0164011 2.7810001
0.29962671 1.0164011 2.7810001
0.30387935 1.0065331 2.7540002
0.311041 1.0065331 2.7540002
0.31831816 1.0068986 2.7550001
0.32548243 1.0068986 2.7550001
0.33892527 1.0259036 2.8070002
0.34647143 1.0266345 2.809
0.35390204 1.0270001 2.8100002
0.36159495 1.0280966 2.8130002
0.3691723 1.0288274 2.8150001
0.37662631 1.0291929 2.8160002
0.385858 1.0343096 2.8300002
0.39307839 1.0339442 2.8290002
0.40015194 1.0332133 2.8270001
0.40764755 1.0335786 2.8280001
0.41045249 1.0222489 2.7970002
0.41742724 1.0215178 2.7950001
0.4243916 1.0207869 2.7930002
0.43134555 1.0200559 2.7910001
0.43844628 1.0196904 2.7900002
0.44554177 1.0193249 2.789
0.45263207 1.0189594 2.7880001
0.45971721 1.018594 2.7870002
0.46679708 1.0182284 2.786
0.47387177 1.017863 2.7850001
0.48111406 1.017863 2.7850001
0.48853165 1.0182284 2.786
0.49808988 1.0229797 2.799
0.5124101 1.0372335 2.8380001
0.52473539 1.0471015 2.8650002
0.53720105 1.0569694 2.8920002
0.55338585 1.0737816 2.9380002
0.56904614 1.0891317 2.9800003
0.58531189 1.1052128 3.0240002
0.60004109 1.1180047 3.0590003
0.60580957 1.1139843 3.0480001
0.6213873 1.1278727 3.0860002
0.62920827 1.1275071 3.085
0.6370241 1.1271417 3.0840001
0.63709599 1.1132535 3.0460002
0.64459336 1.1125225 3.0440001
0.65208042 1.1117915 3.0420001
0.65934014 1.110695 3.039
0.66504729 1.1070402 3.029
0.67247975 1.1063093 3.0270002
0.6814751 1.1081367 3.0320001
0.68799555 1.1059438 3.0260003
0.69517463 1.1048474 3.0230002
0.7023381 1.1037509 3.0200002
0.70972115 1.10302 3.0180001
0.71780699 1.1033854 3.0190001
0.72565776 1.1033854 3.0190001
0.73326558 1.10302 3.0180001
0.73939478 1.1004616 3.0110002
0.74722475 1.1004616 3.0110002
0.75530547 1.1008271 3.0120001
0.76465821 1.10302 3.0180001
0.77225047 1.1026545 3.0170002
0.7785446 1.1004616 3.0110002
0.78559107 1.0993651 3.0080001
0.79288566 1.0986341 3.006
0.79963714 1.0971723 3.0020001
0.80636787 1.0957104 2.9980001
0.81334931 1.0946139 2.9950001
0.82004094 1.093152 2.9910002
0.82588154 1.0905937 2.9840002
0.83224434 1.0887662 2.9790001
0.83801734 1.0862079 2.9720001
0.84517676 1.0854769 2.97
0.85232574 1.084746 2.9680002
0.86004388 1.084746 2.9680002
0.86776203 1.084746 2.9680002
0.87607002 1.0854769 2.97
0.88438857 1.0862079 2.9720001
0.89181703 1.0858424 2.9710002
0.91135108 1.1000961 3.0100002
0.91795695 1.0986341 3.006
0.92638987 1.0993651 3.0080001
0.93514371 1.1004616 3.0110002
0.94547909 1.1033854 3.0190001
0.95206678 1.1019235 3.0150001
0.9748708 1.119101 3.062
0.98251247 1.1187357 3.0610001
1.0011506 1.1307964 3.0940001
1.0075654 1.1289691 3.0890002
1.0254617 1.1399335 3.1190002
1.0292645 1.1351823 3.1060002
1.0376754 1.1355478 3.1070001
1.045755 1.1355478 3.1070001
1.0531563 1.1348168 3.1050003
1.0602053 1.1337204 3.1020002
1.0668944 1.1322584 3.098
1.0742567 1.1315274 3.0960002
1.0728689 1.1216595 3.0690002
1.069932 1.1103295 3.0380001
1.0728652 1.1052128 3.0240002
1.0789421 1.1033854 3.0190001
1.0767133 1.093152 2.9910002
1.0841286 1.0927866 2.9900002
1.0802181 1.0810912 2.9580002
1.0886457 1.081822 2.96
1.0956023 1.0810912 2.9580002
1.1066514 1.0843805 2.9670002
1.1166204 1.0865734 2.973
1.1338062 1.0957104 2.9980001
1.142364 1.0964414 3.0000002
1.1632005 1.1088676 3.0340002
1.1714762 1.1092331 3.0350001
1.1910263 1.1201975 3.0650001
1.1970407 1.1183702 3.0600002
1.2187808 1.1311619 3.095
1.2264328 1.1307964 3.0940001
1.2360744 1.1322584 3.098
1.2461387 1.1340858 3.1030002
1.2558247 1.1355478 3.1070001
1.2651246 1.1366441 3.1100001
1.2703463 1.1340858 3.1030002
1.2788275 1.1344513 3.1040001
1.2868992 1.1344513 3.1040001
1.2970572 1.1362787 3.1090002
1.3047221 1.1359131 3.108
1.3119595 1.1351823 3.1060002
1.3072866 1.1242179 3.0760002
1.3110098 1.120563 3.0660002
1.3181221 1.119832 3.0640001
1.3252244 1.119101 3.062
1.335364 1.1209285 3.0670002
1.3424635 1.1201975 3.0650001
1.3499933 1.119832 3.0640001
1.3610635 1.1223904 3.0710001
1.3623625 1.1169083 3.0560002
1.3743451 1.1201975 3.0650001
1.3814135 1.1194667 3.0630002
1.3866571 1.1172737 3.0570002
1.3882198 1.112157 3.0430002
1.3933802 1.1099641 3.0370002
1.3985094 1.1077712 3.0310001
1.4045354 1.1063093 3.0270002
1.4114736 1.1055783 3.0250001
1.41934 1.1055783 3.0250001
1.4272064 1.1055783 3.0250001
1.4360216 1.1063093 3.0270002
1.4453242 1.1074058 3.0300002
1.4546424 1.1085021 3.0330002
1.4654226 1.110695 3.039
1.4839913 1.1187357 3.0610001
1.4914638 1.1183702 3.0600002
1.5008912 1.1194667 3.0630002
1.5172307 1.1256797 3.0800002
1.527716 1.1275071 3.085
1.5377297 1.1289691 3.0890002
-1.0364732 0.70340264 1.9110001
-1.0347422 0.70561105 1.9170001
-1.0329802 0.70781958 1.9230001
-1.0311871 0.71002805 1.9290001
-1.0293624 0.71223652 1.9350001
-1.0275069 0.71444505 1.9410001
-1.0256201 0.71665353 1.9470001
-1.0237019 0.718862 1.9530001
-1.0212311 0.72070241 1.9580001
-1.0182154 0.72217476 1.9620001
-1.0146623 0.723279 1.9650002
-1.0095525 0.723279 1.9650002
-1.0044426 0.723279 1.9650002
-0.99068701 0.71702158 1.9480001
-0.98764527 0.71849394 1.9520001
-0.97703218 0.71444505 1.9410001
-0.96898001 0.71223652 1.9350001
-0.96095926 0.71002805 1.9290001
-0.9534651 0.7081877 1.9240001
-0.94648999 0.70671535 1.9200001
-0.93806458 0.70413876 1.9130001
-0.93162662 0.70303452 1.9100001
-0.92665976 0.70303452 1.9100001
-0.92362314 0.70450681 1.914
-0.91912585 0.70487493 1.9150001
-0.91462338 0.70524299 1.9160001
-0.9101156 0.70561105 1.9170001
-0.90560275 0.70597917 1.9180001
-0.90108466 0.70634729 1.9190001
-0.90123087 0.71039611 1.9300001
-0.89574772 0.71002805 1.9290001
-0.89073145 0.71002805 1.9290001
-0.88571519 0.71002805 1.9290001
-0.87841612 0.7081877 1.9240001
-0.87432075 0.70892382 1.9260001
-0.87156904 0.71076423 1.9310001
-0.86654764 0.71076423 1.9310001
-0.86286461 0.71186846 1.9340001
-0.85694814 0.71113229 1.932
-0.86779851 0.72438318 1.9680001
-0.86443424 0.72585553 1.9720001
-0.8632279 0.72916824 1.9810001
-0.86024219 0.73100865 1.9860001
-0.85766101 0.73321718 1.9920001
-0.85633248 0.73652989 2.0010002
-0.85325575 0.73837024 2.006
-0.84973019 0.73984259 2.01
-0.84618396 0.74131495 2.0140002
-0.84052902 0.74094683 2.013
-0.83695418 0.74241924 2.0170002
-0.83253378 0.7431553 2.0190001
-0.82810295 0.74389154 2.0210001
-0.82121885 0.74241924 2.0170002
-0.81718737 0.74352336 2.02
-0.81515008 0.74646807 2.0280001
-0.81107438 0.7475723 2.0310001
-0.80698317 0.7486766 2.0340002
-0.80366451 0.75051695 2.039
-0.79992831 0.75198925 2.043
-0.79539359 0.75272542 2.0450001
-0.79123467 0.75382966 2.0480001
-0.78590894 0.75382966 2.0480001
-0.77982092 0.75309348 2.046
-0.77336472 0.75198925 2.043
-0.7669242 0.75088507 2.0400002
-0.7608726 0.75014889 2.0380001
-0.75371915 0.74830842 2.033
-0.73775637 0.73763418 2.0040002
-0.73071736 0.73579371 1.9990001
-0.72225255 0.732481 1.9900001
-0.71599668 0.73137677 1.9870001
-0.71011412 0.73064059 1.9850001
-0.704597 0.73027253 1.9840001
-0.6997903 0.73064059 1.9850001
-0.69567817 0.73174483 1.988
-0.69189787 0.73321718 1.9920001
-0.68844146 0.73505753 1.9970001
-0.68598545 0.73800224 2.0050001
-0.68009245 0.737266 2.003
-0.67656851 0.73910648 2.0080001
-0.67234975 0.74021071 2.0110002
-0.66811544 0.74131495 2.0140002
-0.66287822 0.74131495 2.0140002
-0.6573143 0.74094683 2.013
-0.65143174 0.74021071 2.0110002
-0.64491695 0.73873842 2.0070002
-0.6403352 0.73947453 2.0090001
-0.63321412 0.737266 2.003
-0.62487012 0.73358524 1.9930001
-0.61751086 0.73100865 1.9860001
-0.61111313 0.72953635 1.9820001
-0.60443032 0.72769594 1.9770001
-0.59777355 0.72585553 1.9720001
-0.59204447 0.72511941 1.9700001
-0.58632565 0.72438318 1.9680001
-0.58150333 0.72475129 1.9690001
-0.57667577 0.72511941 1.9700001
-0.57213312 0.72585553 1.9720001
-0.56786764 0.72695982 1.9750001
-0.56387144 0.72843212 1.9790001
-0.55985445 0.72990441 1.983
-0.55581665 0.73137677 1.9870001
-0.55203521 0.73321718 1.9920001
-0.54740417 0.7339533 1.9940001
-0.54303461 0.73505753 1.9970001
-0.53838021 0.73579371 1.9990001
-0.53344858 0.73616177 2
-0.52798355 0.73579371 1.9990001
-0.52226228 0.73505753 1.9970001
-0.51681018 0.73468947 1.9960001
-0.51059443 0.73321718 1.9920001
-0.50439942 0.73174483 1.988
-0.4979741 0.72990441 1.983
-0.4913263 0.72769594 1.9770001
-0.48520154 0.72622359 1.973
-0.47885424 0.72438318 1.9680001
-0.47301441 0.723279 1.9650002
-0.46695203 0.72180665 1.9610001
-0.461146 0.72070241 1.9580001
-0.45535553 0.71959817 1.955
-0.44981104 0.718862 1.9530001
-0.44473237 0.718862 1.9530001
-0.43965366 0.718862 1.9530001
-0.43435249 0.71849394 1.9520001
-0.42949632 0.718862 1.9530001
-0.42441764 0.718862 1.9530001
-0.41933894 0.718862 1.9530001
-0.4144724 0.71923012 1.9540001
-0.40939113 0.71923012 1.9540001
-0.40741351 0.72475129 1.9690001
-0.4033148 0.72659171 1.9740001
-0.39858496 0.72732782 1.9760001
-0.39344645 0.72732782 1.9760001
-0.38811147 0.72695982 1.9750001
-0.38278165 0.72659171 1.9740001
-0.37497002 0.72143853 1.96
-0.3696844 0.72107047 1.9590001
-0.36421791 0.72033435 1.9570001
-0.35894531 0.71996623 1.9560001
-0.35385883 0.71996623 1.9560001
-0.34912896 0.72070241 1.9580001
-0.34438869 0.72143853 1.96
-0.33963802 0.72217476 1.9620001
-0.33521798 0.72364706 1.9660001
-0.33094504 0.72548747 1.9710001
-0.32664609 0.72732782 1.9760001
-0.32232112 0.72916824 1.9810001
-0.31829035 0.73174483 1.988
-0.31611329 0.73873842 2.0070002
-0.30950001 0.73542565 1.9980001
-0.30491352 0.73689795 2.0020001
-0.30494711 0.74978083 2.0370002
-0.30582827 0.76524013 2.079
-0.31588379 0.80462486 2.1860001
-0.3260923 0.84584993 2.2980001
-0.33850437 0.8944366 2.4300001
-0.35375923 0.97099739 2.638
-0.35768232 1.0011801 2.72
-0.36349913 1.0379882 2.8200002
-0.36235458 1.0560241 2.8690002
-0.35477015 1.055656 2.868
-0.32575643 0.99013758 2.6900001
-0.33250707 1.032835 2.8060002
-0.32521021 1.032835 2.8060002
-0.31700695 1.0298903 2.7980001
-0.30995229 1.0306265 2.8000002
-0.30288723 1.0313627 2.802
-0.29570627 1.0317308 2.8030002
-0.29376778 1.0508709 2.855
-0.28654408 1.0516071 2.8570001
-0.27891919 1.0508709 2.855
-0.27805644 1.0762686 2.924
-0.27036023 1.0759004 2.9230001
-0.26590541 1.0887833 2.9580002
-0.25960994 1.0946727 2.9740002
-0.25221497 1.0961449 2.9780002
-0.24504548 1.0987215 2.9850001
-0.23958839 1.1093959 3.0140002
-0.23198132 1.1105001 3.0170002
-0.22532441 1.1163894 3.0330002
-0.21722217 1.1152852 3.0300002
-0.20955008 1.1163894 3.0330002
-0.2035246 1.1266956 3.0610001
-0.19562852 1.1270636 3.062
-0.18729821 1.1248553 3.0560002
-0.17935124 1.1248553 3.0560002
-0.17162861 1.1263275 3.0600002
-0.16361773 1.1259595 3.0590003
-0.15403457 1.1141809 3.0270002
-0.14616302 1.1141809 3.0270002
-0.13655537 1.1001937 2.9890001
-0.12852411 1.0979853 2.983
-0.11910708 1.082894 2.9420002
-0.10982752 1.0670666 2.8990002
-0.10133614 1.0571284 2.8720002
-0.092658341 1.0435094 2.835
-0.084172986 1.0298903 2.7980001
-0.076099925 1.0192159 2.7690001
-0.068277217 1.0100141 2.7440002
-0.060673654 1.0022843 2.723
-0.05361231 1.0026524 2.7240002
-0.047041114 1.0136949 2.7540002
-0.039922912 1.0147991 2.7570002
-0.032765348 1.0151671 2.7580001
-0.025611866 1.0159034 2.7600002
-0.018381186 1.0129586 2.7520001
-0.011228823 1.0133266 2.753
-0.0040623904 1.0114863 2.7480001
0.0030858929 1.0122225 2.7500002
0.010036113 0.99234611 2.6960001
0.016939437 0.98608875 2.6790001
0.023522334 0.97026128 2.6360002
0.030019879 0.95885068 2.605
