# .PCD v0.7 - Point Cloud Data file format
VERSION 0.7
FIELDS x y z
SIZE 4 4 4
TYPE F F F
COUNT 1 1 1
WIDTH 1486
HEIGHT 1
VIEWPOINT 0 0 0 1 0 0 0
POINTS 1486
DATA ascii
-0.74507058 -0.40690595 1.8320001
-0.73868906 -0.40601748 1.8280001
-0.73192692 -0.40490693 1.8230001
-0.72598851 -0.40424061 1.8200001
-0.7188769 -0.40290797 1.8140001
-0.70864689 -0.39979839 1.8000001
-0.70083624 -0.39802152 1.7920001
-0.69811767 -0.39913207 1.7970001
-0.69151419 -0.39802152 1.7920001
-0.68531996 -0.39713308 1.7880001
-0.67914653 -0.39624462 1.784
-0.67261589 -0.39513409 1.779
-0.66611117 -0.39402354 1.774
-0.65776807 -0.39180243 1.7640001
-0.65132844 -0.39069188 1.7590001
-0.64491481 -0.38958132 1.7540001
-0.63560653 -0.38669389 1.7410001
-0.62962824 -0.38580546 1.7370001
-0.62475032 -0.38558334 1.7360001
-0.6191631 -0.38491702 1.733
-0.61465549 -0.38491702 1.733
-0.60979587 -0.3846949 1.7320001
-0.60529083 -0.3846949 1.7320001
-0.60113269 -0.38491702 1.733
-0.59696943 -0.38513914 1.7340001
-0.5924592 -0.38513914 1.7340001
-0.58760989 -0.38491702 1.733
-0.58209294 -0.3842507 1.7300001
-0.57692534 -0.38380647 1.728
-0.57243079 -0.38380647 1.728
-0.56037688 -0.37869793 1.705
-0.55463779 -0.37780949 1.7010001
-0.54762572 -0.37603262 1.6930001
-0.52846247 -0.36581555 1.6470001
-0.52386028 -0.3655934 1.646
-0.51863199 -0.36492711 1.6430001
-0.51248014 -0.36359444 1.6370001
-0.50698042 -0.36270601 1.6330001
-0.50088573 -0.36137334 1.6270001
-0.49482232 -0.36004066 1.6210001
-0.48909274 -0.35893011 1.6160001
-0.48308915 -0.35759747 1.6100001
-0.47771168 -0.356709 1.6060001
-0.47235498 -0.3558206 1.6020001
-0.46701911 -0.35493213 1.598
-0.46170408 -0.35404369 1.5940001
-0.45669684 -0.35337737 1.5910001
-0.45142081 -0.35248893 1.5870001
-0.44616556 -0.35160047 1.5830001
-0.44121039 -0.35093415 1.58
-0.43599415 -0.35004571 1.5760001
-0.43134683 -0.34960151 1.5740001
-0.42670992 -0.34915727 1.572
-0.42262104 -0.34915727 1.572
-0.41853225 -0.34915727 1.572
-0.41444343 -0.34915727 1.572
-0.41087666 -0.34960151 1.5740001
-0.40729952 -0.35004571 1.5760001
-0.40371197 -0.35048994 1.5780001
-0.40011397 -0.35093415 1.58
-0.39625499 -0.35115626 1.5810001
-0.39239076 -0.35137835 1.582
-0.38852137 -0.35160047 1.5830001
-0.38416108 -0.35137835 1.582
-0.38004625 -0.35137835 1.582
-0.37593141 -0.35137835 1.582
-0.37181658 -0.35137835 1.582
-0.36793417 -0.35160047 1.5830001
-0.36381674 -0.35160047 1.5830001
-0.35992652 -0.35182261 1.5840001
-0.35603109 -0.3520447 1.585
-0.3523525 -0.35248893 1.5870001
-0.34844407 -0.35271102 1.5880001
-0.34453046 -0.35293314 1.5890001
-0.34082586 -0.35337737 1.5910001
-0.33668759 -0.35337737 1.5910001
-0.33275837 -0.35359949 1.5920001
-0.32820466 -0.35315526 1.59
-0.32386521 -0.35293314 1.5890001
-0.31932974 -0.35248893 1.5870001
-0.31440741 -0.35160047 1.5830001
-0.30970195 -0.35093415 1.58
-0.30501205 -0.3502678 1.577
-0.30014697 -0.34937939 1.5730001
-0.29549092 -0.34871304 1.5700001
-0.29085046 -0.34804672 1.567
-0.2864086 -0.34760249 1.5650001
-0.2821576 -0.3473804 1.5640001
-0.27791175 -0.34715828 1.5630001
-0.27384633 -0.34715828 1.5630001
-0.26978093 -0.34715828 1.5630001
-0.26554549 -0.34693617 1.562
-0.26165006 -0.34715828 1.5630001
-0.25741985 -0.34693617 1.562
-0.25351924 -0.34715828 1.5630001
-0.24913463 -0.34671408 1.5610001
-0.2438184 -0.34493718 1.5530001
-0.23931579 -0.34427086 1.5500001
-0.23498061 -0.34382662 1.5480001
-0.23050661 -0.3431603 1.5450001
-0.2263414 -0.34293818 1.544
-0.22189344 -0.34227186 1.5410001
-0.21802662 -0.34249395 1.5420001
-0.21373823 -0.34204975 1.5400001
-0.21027741 -0.34293818 1.544
-0.20545988 -0.34160554 1.5380001
-0.20132847 -0.3413834 1.5370001
-0.19707392 -0.34093919 1.5350001
-0.1933329 -0.3413834 1.5370001
-0.19155243 -0.34538141 1.5550001
-0.18774898 -0.34582561 1.557
-0.18369918 -0.34582561 1.557
-0.17941859 -0.34538141 1.5550001
-0.17300558 -0.34071708 1.534
-0.16813415 -0.3389402 1.526
-0.16459529 -0.33982864 1.5300001
-0.1606157 -0.33982864 1.5300001
-0.15663612 -0.33982864 1.5300001
-0.15265654 -0.33982864 1.5300001
-0.1487741 -0.34005073 1.531
-0.14479193 -0.34005073 1.531
-0.13961411 -0.33716333 1.5180001
-0.13548698 -0.3367191 1.516
-0.13128351 -0.33605278 1.5130001
-0.12709562 -0.33538646 1.5100001
-0.12292336 -0.3347201 1.5070001
-0.11884566 -0.3342759 1.5050001
-0.11485472 -0.33405378 1.5040001
-0.110869 -0.33383167 1.503
-0.1070308 -0.33405378 1.5040001
-0.10325597 -0.33449799 1.506
-0.099470735 -0.33494219 1.508
-0.095675103 -0.33538646 1.5100001
-0.091869049 -0.33583066 1.5120001
-0.088052593 -0.33627486 1.5140001
-0.084225744 -0.3367191 1.516
-0.080388486 -0.33716333 1.5180001
-0.076490462 -0.33738542 1.5190001
-0.072587244 -0.33760753 1.5200001
-0.068633668 -0.33760753 1.5200001
-0.064680092 -0.33760753 1.5200001
-0.060686562 -0.33738542 1.5190001
-0.05673559 -0.33738542 1.5190001
-0.052715115 -0.33694121 1.5170001
-0.048705041 -0.33649701 1.5150001
-0.04470538 -0.33605278 1.5130001
-0.040716115 -0.33560854 1.511
-0.036712911 -0.33494219 1.508
-0.032703567 -0.33405378 1.5040001
-0.028734177 -0.33338743 1.501
-0.024780395 -0.33272111 1.498
-0.020856159 -0.33227688 1.4960001
-0.016953669 -0.33205479 1.4950001
-0.013065116 -0.33205479 1.4950001
-0.0091765663 -0.33205479 1.4950001
-0.0052950904 -0.332499 1.4970001
-0.0014041457 -0.33316535 1.5000001
0.0025024046 -0.33383167 1.503
0.006428828 -0.3347201 1.5070001
0.010369192 -0.33538646 1.5100001
0.014334629 -0.33627486 1.5140001
0.018308807 -0.33694121 1.5170001
0.022283921 -0.33738542 1.5190001
0.026286712 -0.33805177 1.5220001
0.030285234 -0.33849597 1.524
0.034316633 -0.33916232 1.5270001
0.038338564 -0.33960652 1.529
0.042398576 -0.34027287 1.5320001
0.046474196 -0.34093919 1.5350001
0.050565422 -0.34160554 1.5380001
0.054672252 -0.34227186 1.5410001
0.058794685 -0.34293818 1.544
0.06293273 -0.34360451 1.5470001
0.067129664 -0.34449297 1.5510001
0.071347401 -0.34538141 1.5550001
0.075537466 -0.34604773 1.5580001
0.079794221 -0.34693617 1.562
0.084018089 -0.34760249 1.5650001
0.088257581 -0.34826884 1.5680001
0.092394896 -0.34849095 1.5690001
0.097152293 -0.35093415 1.58
0.10119785 -0.35071206 1.5790001
0.1051715 -0.3502678 1.577
0.10927334 -0.3502678 1.577
0.11330328 -0.35004571 1.5760001
0.11732801 -0.34982359 1.575
0.12134757 -0.34960151 1.5740001
0.12536189 -0.34937939 1.5730001
0.12928873 -0.34893516 1.5710001
0.13337497 -0.34893516 1.5710001
0.1374612 -0.34893516 1.5710001
0.14091672 -0.3473804 1.5640001
0.14517014 -0.3478246 1.5660001
0.14943397 -0.34826884 1.5680001
0.15380611 -0.34893516 1.5710001
0.15819386 -0.34960151 1.5740001
0.16270031 -0.35048994 1.5780001
0.16712187 -0.35115626 1.5810001
0.17177564 -0.35226682 1.5860001
0.1762336 -0.35293314 1.5890001
0.1808207 -0.35382158 1.5930001
0.18531248 -0.35448793 1.5960001
0.18970115 -0.35493213 1.598
0.19410023 -0.35537633 1.6
0.19838582 -0.35559848 1.6010001
0.20267659 -0.3558206 1.6020001
0.20555231 -0.35359949 1.5920001
0.20969315 -0.35359949 1.5920001
0.213834 -0.35359949 1.5920001
0.21797486 -0.35359949 1.5920001
0.2221157 -0.35359949 1.5920001
0.22625656 -0.35359949 1.5920001
0.23025268 -0.35337737 1.5910001
0.23615879 -0.35604268 1.603
0.23852919 -0.35337737 1.5910001
0.24236237 -0.35293314 1.5890001
0.24634029 -0.35271102 1.5880001
0.25031304 -0.35248893 1.5870001
0.25572348 -0.35426581 1.595
0.25824285 -0.3520447 1.585
0.26203445 -0.35160047 1.5830001
0.26564747 -0.35093415 1.58
0.26941565 -0.35048994 1.5780001
0.27334675 -0.3502678 1.577
0.27709672 -0.34982359 1.575
0.28101483 -0.34960151 1.5740001
0.2849277 -0.34937939 1.5730001
0.28901914 -0.34937939 1.5730001
0.29311058 -0.34937939 1.5730001
0.29720202 -0.34937939 1.5730001
0.30129343 -0.34937939 1.5730001
0.30538487 -0.34937939 1.5730001
0.30947632 -0.34937939 1.5730001
0.31356773 -0.34937939 1.5730001
0.31745723 -0.34915727 1.572
0.32154605 -0.34915727 1.572
0.32522058 -0.34871304 1.5700001
0.32888475 -0.34826884 1.5680001
0.33317551 -0.34849095 1.5690001
0.33639672 -0.34760249 1.5650001
0.34003225 -0.34715828 1.5630001
0.34365737 -0.34671408 1.5610001
0.34727207 -0.34626982 1.559
0.35110173 -0.34604773 1.5580001
0.35515416 -0.34604773 1.5580001
0.35920659 -0.34604773 1.5580001
0.36325899 -0.34604773 1.5580001
0.36731142 -0.34604773 1.5580001
0.37160218 -0.34626982 1.559
0.37903064 -0.34937939 1.5730001
0.38336566 -0.34960151 1.5740001
0.38475189 -0.34715828 1.5630001
0.38931483 -0.34760249 1.5650001
0.39388818 -0.34804672 1.567
0.3987259 -0.34871304 1.5700001
0.40486208 -0.35048994 1.5780001
0.40974402 -0.35115626 1.5810001
0.41280916 -0.3502678 1.577
0.41823286 -0.35137835 1.582
0.42368257 -0.35248893 1.5870001
0.42861909 -0.35315526 1.59
0.43384343 -0.35404369 1.5940001
0.43881384 -0.35471004 1.5970001
0.44379979 -0.35537633 1.6
0.44880137 -0.35604268 1.603
0.453536 -0.35648689 1.605
0.45771065 -0.35648689 1.605
0.4618853 -0.35648689 1.605
0.46576965 -0.3562648 1.6040001
0.46964869 -0.35604268 1.603
0.47293139 -0.35537633 1.6
0.47649673 -0.35493213 1.598
0.47975081 -0.35426581 1.595
0.48298931 -0.35359949 1.5920001
0.48682421 -0.35337737 1.5910001
0.49034527 -0.35293314 1.5890001
0.49416709 -0.35271102 1.5880001
0.49798381 -0.35248893 1.5870001
0.502428 -0.35271102 1.5880001
0.50655842 -0.35271102 1.5880001
0.51133209 -0.35315526 1.59
0.37402073 -0.2389906 1.0760001
0.37681943 -0.2389906 1.0760001
0.37961814 -0.2389906 1.0760001
0.38206145 -0.23876849 1.075
0.38485757 -0.23876849 1.075
0.38765365 -0.23876849 1.075
0.39008656 -0.23854637 1.074
0.39251429 -0.23832427 1.0730001
0.39530519 -0.23832427 1.0730001
0.39772511 -0.23810215 1.072
0.40051341 -0.23810215 1.072
0.40292552 -0.23788007 1.0710001
0.40533242 -0.23765793 1.0700001
0.40773407 -0.23743582 1.069
0.41051459 -0.23743582 1.069
0.41290852 -0.23721373 1.0680001
0.41529718 -0.2369916 1.067
0.41728884 -0.2365474 1.0650001
0.41966453 -0.23632526 1.064
0.42203504 -0.23610318 1.0630001
0.42440027 -0.23588106 1.062
0.42756486 -0.23610318 1.0630001
0.43032974 -0.23610318 1.0630001
0.38805866 -0.20500773 0.92300004
0.3900364 -0.20478563 0.92200005
0.3920089 -0.20456351 0.92100006
0.39354801 -0.20411929 0.91900003
0.39550751 -0.20389718 0.91800004
0.39702839 -0.20345297 0.91600007
0.39853886 -0.20300874 0.91400003
0.40003896 -0.20256452 0.91200006
0.4015286 -0.2021203 0.91000003
0.40300786 -0.20167609 0.90800005
0.40492317 -0.20145398 0.90700006
0.40683323 -0.20123185 0.90600002
0.40828651 -0.20078765 0.90400004
0.41018361 -0.20056553 0.90300006
0.41253233 -0.20056553 0.90300006
0.41442165 -0.20034343 0.90200007
0.41676778 -0.20034343 0.90200007
0.4191139 -0.20034343 0.90200007
0.42146006 -0.20034343 0.90200007
0.42380619 -0.20034343 0.90200007
0.42615232 -0.20034343 0.90200007
0.42849845 -0.20034343 0.90200007
0.4308446 -0.20034343 0.90200007
0.43271044 -0.20012131 0.90100002
0.43505397 -0.20012131 0.90100002
0.43691206 -0.1998992 0.90000004
0.439253 -0.1998992 0.90000004
0.44110328 -0.19967709 0.89900005
0.44245508 -0.19923286 0.89700001
0.44429234 -0.19901076 0.89600003
0.4461244 -0.19878864 0.89500004
0.44845235 -0.19878864 0.89500004
-1.2483141 -0.51804167 2.3600001
-1.2384913 -0.51650512 2.3530002
-1.2313234 -0.51606607 2.3510001
-1.2220815 -0.51474899 2.345
-1.2165008 -0.51496857 2.3460002
-1.2114305 -0.51540756 2.348
-1.2073766 -0.51628554 2.352
-1.2063665 -0.51848072 2.3620002
-1.197174 -0.51716363 2.3560002
-1.1910459 -0.51716363 2.3560002
-1.1854208 -0.51738316 2.3570001
-1.1787899 -0.51716363 2.3560002
-1.1811233 -0.5208953 2.3730001
-1.1764364 -0.52155381 2.3760002
-1.171734 -0.52221233 2.3790002
-1.1670159 -0.5228709 2.3820002
-1.1613075 -0.52309036 2.3830001
-1.1701359 -0.52989513 2.414
-1.1662676 -0.53099269 2.4190001
-1.1618937 -0.53187072 2.4230001
-1.1608377 -0.53428531 2.434
-1.1725311 -0.54262668 2.4720001
-1.1656296 -0.54240721 2.4710002
-1.1606098 -0.54306573 2.4740002
-1.1695701 -0.55030954 2.5070002
-1.1653688 -0.55140704 2.5120001
-1.160219 -0.55206561 2.5150001
-1.1536773 -0.55206561 2.5150001
-1.1471357 -0.55206561 2.5150001
-1.1396871 -0.55162656 2.513
-1.131798 -0.55096805 2.5100002
-1.1239245 -0.55030954 2.5070002
-1.1165122 -0.54987049 2.5050001
-1.0975895 -0.54372424 2.4770002
-1.0885036 -0.54240721 2.4710002
-1.0654359 -0.53406584 2.4330001
-1.0578016 -0.53340727 2.4300001
-1.0454232 -0.53033417 2.4160001
-1.014623 -0.51782215 2.3590002
-0.96958405 -0.49784681 2.2680001
-0.91949469 -0.47501785 2.164
-0.78484482 -0.41048217 1.8700001
-0.79624778 -0.419043 1.909
-0.77718937 -0.41157973 1.8750001
-0.74718654 -0.39818966 1.8140001
-0.74205899 -0.39797014 1.8130001
-0.74385047 -0.40148228 1.8290001
-0.73788089 -0.40082377 1.8260001
-0.73152542 -0.39994574 1.8220001
-0.72558963 -0.39928719 1.8190001
-0.70778066 -0.39204341 1.7860001
-0.70037931 -0.39050683 1.779
-0.69614315 -0.39072633 1.7800001
-0.6895709 -0.3896288 1.7750001
-0.68302459 -0.38853124 1.7700001
-0.67650431 -0.38743371 1.7650001
-0.67039073 -0.38655564 1.761
-0.66278565 -0.3847996 1.7530001
-0.65372014 -0.38216546 1.7410001
-0.65180194 -0.38370204 1.748
-0.65021759 -0.38545811 1.756
-0.64013493 -0.38216546 1.7410001
-0.63779706 -0.38348255 1.7470001
-0.62926573 -0.38106793 1.7360001
-0.62295091 -0.3799704 1.7310001
-0.61737669 -0.37931186 1.728
-0.61288214 -0.37931186 1.728
-0.6080355 -0.37909237 1.7270001
-0.60354346 -0.37909237 1.7270001
-0.59939831 -0.37931186 1.728
-0.59524804 -0.37953138 1.7290001
-0.59075081 -0.37953138 1.7290001
-0.58591455 -0.37931186 1.728
-0.58041054 -0.37865332 1.725
-0.5732528 -0.37689728 1.7170001
-0.56646794 -0.3753607 1.71
-0.56070554 -0.37448266 1.7060001
-0.54257339 -0.36526325 1.664
-0.53662795 -0.36416572 1.659
-0.52782077 -0.3610926 1.6450001
-0.52386028 -0.36131209 1.646
-0.517685 -0.35999507 1.6400001
-0.51091486 -0.358239 1.6320001
-0.50542808 -0.35736093 1.628
-0.49934646 -0.35604391 1.6220001
-0.49360132 -0.35494635 1.6170001
-0.48818475 -0.35406831 1.613
-0.48158884 -0.35231221 1.605
-0.47622439 -0.3514342 1.6010001
-0.47117555 -0.35077566 1.598
-0.46585011 -0.34989765 1.5940001
-0.4608351 -0.34923911 1.5910001
-0.45612273 -0.34880009 1.5890001
-0.45085189 -0.34792203 1.585
-0.44588369 -0.34726351 1.582
-0.44093117 -0.346605 1.5790001
-0.43627077 -0.34616596 1.577
-0.43162087 -0.34572697 1.575
-0.42725283 -0.34550747 1.5740001
-0.42288992 -0.34528795 1.5730001
-0.41906476 -0.34550747 1.5740001
-0.41523436 -0.34572697 1.575
-0.41139874 -0.34594646 1.5760001
-0.40781638 -0.34638548 1.5780001
-0.40422365 -0.3468245 1.58
-0.40062043 -0.34726351 1.582
-0.39650559 -0.34726351 1.582
-0.3926388 -0.34748304 1.5830001
-0.38852137 -0.34748304 1.5830001
-0.38440391 -0.34748304 1.5830001
-0.38004625 -0.34726351 1.582
-0.37616906 -0.34748304 1.5830001
-0.3720516 -0.34748304 1.5830001
-0.36793417 -0.34748304 1.5830001
-0.36404657 -0.34770256 1.5840001
-0.36015373 -0.34792203 1.585
-0.35625574 -0.34814155 1.5860001
-0.3523525 -0.34836107 1.5870001
-0.34866351 -0.34880009 1.5890001
-0.34474728 -0.34901959 1.59
-0.34061161 -0.34901959 1.59
-0.33647597 -0.34901959 1.59
-0.33254936 -0.34923911 1.5910001
-0.32799825 -0.34880009 1.5890001
-0.32345757 -0.34836107 1.5870001
-0.31892729 -0.34792203 1.585
-0.3140102 -0.34704402 1.5810001
-0.30911389 -0.34616596 1.577
-0.30443183 -0.34550747 1.5740001
-0.29957452 -0.34462941 1.5700001
-0.29492629 -0.34397087 1.567
-0.29029363 -0.34331238 1.5640001
-0.28585958 -0.34287333 1.562
-0.28179678 -0.34287333 1.562
-0.27773395 -0.34287333 1.562
-0.27349591 -0.34265384 1.5610001
-0.2694357 -0.34265384 1.5610001
-0.26554549 -0.34287333 1.562
-0.26165006 -0.34309286 1.5630001
-0.25758466 -0.34309286 1.5630001
-0.25368142 -0.34331238 1.5640001
-0.24897502 -0.34243432 1.5600001
-0.2441324 -0.34133679 1.5550001
-0.23993337 -0.34111726 1.554
-0.23558779 -0.34067824 1.552
-0.23125258 -0.34023923 1.5500001
-0.22707437 -0.3400197 1.549
-0.22290139 -0.33980021 1.5480001
-0.21972331 -0.34111726 1.554
-0.21443219 -0.3391417 1.5450001
-0.21014123 -0.33870268 1.5430001
-0.20612782 -0.33870268 1.5430001
-0.20224538 -0.33892217 1.544
-0.19964166 -0.34133679 1.5550001
-0.19660333 -0.34309286 1.5630001
-0.19229154 -0.34265384 1.5610001
-0.18847249 -0.34309286 1.5630001
-0.18440707 -0.34309286 1.5630001
-0.1787263 -0.3400197 1.549
-0.17616343 -0.34287333 1.562
-0.17154972 -0.34177577 1.557
-0.16534834 -0.33738559 1.5370001
-0.16124555 -0.3371661 1.536
-0.15725037 -0.3371661 1.536
-0.15315542 -0.33694661 1.5350001
-0.14935715 -0.33738559 1.5370001
-0.14526479 -0.3371661 1.536
-0.14126959 -0.3371661 1.536
-0.13620195 -0.33453199 1.524
-0.13197766 -0.33387345 1.521
-0.12776898 -0.33321494 1.5180001
-0.1235759 -0.33255643 1.5150001
-0.11947739 -0.33211741 1.5130001
-0.11546566 -0.33189788 1.5120001
-0.11145912 -0.33167836 1.511
-0.10760012 -0.33189788 1.5120001
-0.10380448 -0.3323369 1.5140001
-0.099932477 -0.33255643 1.5150001
-0.096118629 -0.33299541 1.5170001
-0.092294365 -0.33343443 1.5190001
-0.088459708 -0.33387345 1.521
-0.08455909 -0.33409297 1.5220001
-0.080706224 -0.33453199 1.524
-0.076792598 -0.33475152 1.5250001
-0.072873771 -0.33497101 1.526
-0.068859436 -0.33475152 1.5250001
-0.064892858 -0.33475152 1.5250001
-0.06088632 -0.33453199 1.524
-0.056884997 -0.3343125 1.5230001
-0.05285411 -0.33387345 1.521
-0.048865784 -0.33365396 1.5200001
-0.044853117 -0.33321494 1.5180001
-0.040850848 -0.33277592 1.516
-0.036834642 -0.33211741 1.5130001
-0.03281229 -0.33123934 1.5090001
-0.028829895 -0.33058083 1.506
-0.024863105 -0.32992229 1.503
-0.020925866 -0.32948327 1.501
-0.01701037 -0.32926378 1.5000001
-0.013108813 -0.32926378 1.5000001
-0.0092072571 -0.32926378 1.5000001
-0.0053127762 -0.32970279 1.5020001
-0.0014088262 -0.33036134 1.5050001
0.0025107295 -0.33101982 1.508
0.0064501576 -0.33189788 1.5120001
0.010403527 -0.33255643 1.5150001
0.014381969 -0.33343443 1.5190001
0.018369153 -0.33409297 1.5220001
0.022371942 -0.33475152 1.5250001
0.026390338 -0.33541003 1.5280001
0.030404467 -0.33584905 1.5300001
0.034451474 -0.33650759 1.5330001
0.038514085 -0.3371661 1.536
0.042592302 -0.33782461 1.539
0.046686128 -0.33848315 1.5420001
0.050795563 -0.3391417 1.5450001
0.054920599 -0.33980021 1.5480001
0.059061244 -0.34045875 1.5510001
0.063258171 -0.34133679 1.5550001
0.067475908 -0.34221479 1.559
0.07166858 -0.34287333 1.562
0.075876847 -0.34353188 1.5650001
0.080151811 -0.34440991 1.5690001
0.084393889 -0.34506842 1.572
0.089214452 -0.34792203 1.585
0.093278207 -0.34770256 1.5840001
0.097336762 -0.34748304 1.5830001
0.1014542 -0.34748304 1.5830001
0.10550496 -0.34726351 1.582
0.10955051 -0.34704402 1.5810001
0.11359084 -0.3468245 1.58
0.117626 -0.346605 1.5790001
0.12157884 -0.34616596 1.577
0.12568067 -0.34616596 1.577
0.12970021 -0.34594646 1.5760001
0.13371456 -0.34572697 1.575
0.13781118 -0.34572697 1.575
0.14136723 -0.34440991 1.5690001
0.14554094 -0.34462941 1.5700001
0.14991049 -0.34528795 1.5730001
0.15419772 -0.34572697 1.575
0.15869637 -0.346605 1.5790001
0.16300963 -0.34704402 1.5810001
0.1676504 -0.34814155 1.5860001
0.17210056 -0.34880009 1.5890001
0.17667724 -0.34967813 1.5930001
0.18116122 -0.35033664 1.5960001
0.18566081 -0.35099518 1.5990001
0.19005729 -0.3514342 1.6010001
0.19446416 -0.35187322 1.603
0.19875756 -0.35209271 1.6040001
0.20179097 -0.35011712 1.595
0.20593964 -0.35011712 1.595
0.21022001 -0.35033664 1.5960001
0.21437126 -0.35033664 1.5960001
0.21865946 -0.35055616 1.5970001
0.22281329 -0.35055616 1.5970001
0.22710927 -0.35077566 1.598
0.23112103 -0.35055616 1.5970001
0.23689541 -0.35297075 1.608
0.24062811 -0.35231221 1.605
0.24449772 -0.35187322 1.603
0.2482018 -0.35121468 1.6
0.25157484 -0.35011712 1.595
0.2552425 -0.34945863 1.5920001
0.25889456 -0.34880009 1.5890001
0.26253104 -0.34814155 1.5860001
0.26615188 -0.34748304 1.5830001
0.26992786 -0.34704402 1.5810001
0.27369344 -0.346605 1.5790001
0.27762452 -0.34638548 1.5780001
0.28155044 -0.34616596 1.577
0.28547111 -0.34594646 1.5760001
0.28957036 -0.34594646 1.5760001
0.29366961 -0.34594646 1.5760001
0.29776883 -0.34594646 1.5760001
0.30186808 -0.34594646 1.5760001
0.3059673 -0.34594646 1.5760001
0.31006652 -0.34594646 1.5760001
0.31416577 -0.34594646 1.5760001
0.31826502 -0.34594646 1.5760001
0.32215968 -0.34572697 1.575
0.32604921 -0.34550747 1.5740001
0.32972372 -0.34506842 1.572
0.33381253 -0.34506842 1.572
0.33747149 -0.34462941 1.5700001
0.34090245 -0.34397087 1.567
0.34475812 -0.34375137 1.5660001
0.34838587 -0.34331238 1.5640001
0.35222852 -0.34309286 1.5630001
0.35629395 -0.34309286 1.5630001
0.36035937 -0.34309286 1.5630001
0.36442477 -0.34309286 1.5630001
0.36849019 -0.34309286 1.5630001
0.372794 -0.34331238 1.5640001
0.37710294 -0.34353188 1.5650001
0.38141716 -0.34375137 1.5660001
0.38598272 -0.34419039 1.5680001
0.39055863 -0.34462941 1.5700001
0.395145 -0.34506842 1.572
0.39974177 -0.34550747 1.5740001
0.40460551 -0.34616596 1.577
0.40948483 -0.3468245 1.58
0.41385624 -0.34704402 1.5810001
0.41902599 -0.34792203 1.585
0.42475045 -0.34923911 1.5910001
0.42969739 -0.34989765 1.5940001
0.43493211 -0.35077566 1.598
0.43991295 -0.3514342 1.6010001
0.4449093 -0.35209271 1.6040001
0.44992128 -0.35275126 1.6070001
0.45438373 -0.35297075 1.608
0.45856619 -0.35297075 1.608
0.46274865 -0.35297075 1.608
0.4666408 -0.35275126 1.6070001
0.47023466 -0.35231221 1.605
0.47381815 -0.35187322 1.603
0.47739127 -0.3514342 1.6010001
0.48065317 -0.35077566 1.598
0.48389944 -0.35011712 1.595
0.48774216 -0.34989765 1.5940001
0.49127105 -0.34945863 1.5920001
0.49541187 -0.34945863 1.5920001
0.49923897 -0.34923911 1.5910001
0.5033772 -0.34923911 1.5910001
0.50751543 -0.34923911 1.5910001
0.51229692 -0.34967813 1.5930001
0.5174129 -0.35033664 1.5960001
0.37646922 -0.23597237 1.075
0.37926531 -0.23597237 1.075
0.38206145 -0.23597237 1.075
0.38485757 -0.23597237 1.075
0.38765365 -0.23597237 1.075
0.39008656 -0.23575285 1.074
0.39251429 -0.23553336 1.0730001
0.39493677 -0.23531383 1.072
0.39772511 -0.23531383 1.072
0.40013981 -0.23509434 1.0710001
0.4025493 -0.23487483 1.0700001
0.40495357 -0.23465531 1.069
0.40735269 -0.23443581 1.0680001
0.40974656 -0.23421629 1.067
0.4121353 -0.23399679 1.0660001
0.41451874 -0.23377728 1.0650001
0.41611338 -0.23311874 1.062
0.41887569 -0.23311874 1.062
0.4204469 -0.23246022 1.059
0.42280179 -0.23224072 1.0580001
0.42434704 -0.23158219 1.0550001
0.40264726 -0.21555802 0.98200005
0.38774705 -0.20370452 0.92800003
0.38847908 -0.20282649 0.92400002
0.39045942 -0.20260698 0.92300004
0.3920089 -0.20216796 0.92100006
0.39397624 -0.20194843 0.92000002
0.39593834 -0.20172894 0.91900003
0.39746183 -0.20128992 0.91700006
0.3989749 -0.20085089 0.91500002
0.40047759 -0.20041189 0.91300005
0.40196985 -0.19997287 0.91100007
0.40345171 -0.19953385 0.90900004
0.40536961 -0.19931434 0.90800005
0.40728229 -0.19909483 0.90700006
0.40873817 -0.1986558 0.90500003
0.41063786 -0.1984363 0.90400004
0.41298917 -0.1984363 0.90400004
0.41534054 -0.1984363 0.90400004
0.41769186 -0.1984363 0.90400004
0.4200432 -0.1984363 0.90400004
0.42286178 -0.1986558 0.90500003
0.42521572 -0.1986558 0.90500003
0.42756966 -0.1986558 0.90500003
0.42992359 -0.1986558 0.90500003
0.43227753 -0.1986558 0.90500003
0.43463147 -0.1986558 0.90500003
0.43650255 -0.1984363 0.90400004
0.43885392 -0.1984363 0.90400004
0.44071719 -0.1982168 0.90300006
0.44257525 -0.19799729 0.90200007
0.44442812 -0.19777776 0.90100002
0.4462758 -0.19755825 0.90000004
0.44811827 -0.19733876 0.89900005
0.44995555 -0.19711925 0.89800006
0.43919599 -0.191412 0.87200004
-1.2504299 -0.51277089 2.3640001
-1.2395439 -0.51081866 2.355
-1.2328947 -0.51060176 2.3540001
-1.2371947 -0.51493996 2.3740001
-1.2315384 -0.51515687 2.375
-1.2263929 -0.51559067 2.3770001
-1.2207235 -0.51580757 2.378
-1.2150491 -0.51602453 2.3790002
-1.204796 -0.5142892 2.3710001
-1.2052009 -0.51710904 2.3840001
-1.1995031 -0.517326 2.3850002
-1.1932997 -0.517326 2.3850002
-1.1831142 -0.51559067 2.3770001
-1.1779218 -0.51602453 2.3790002
-1.1732116 -0.51667523 2.3820002
-1.1684858 -0.517326 2.3850002
-1.1637441 -0.51797664 2.388
-1.1691664 -0.52318245 2.4120002
-1.1681961 -0.52556843 2.4230001
-1.1628529 -0.52600229 2.4250002
-1.1780069 -0.53576314 2.47
-1.1725311 -0.53619695 2.4720001
-1.1783661 -0.54183656 2.4980001
-1.1732761 -0.54248732 2.5010002
-1.1691035 -0.54357183 2.506
-1.1653688 -0.5448733 2.5120001
-1.160219 -0.545524 2.5150001
-1.1536773 -0.545524 2.5150001
-1.1466796 -0.5453071 2.5140002
-1.1392336 -0.5448733 2.5120001
-1.1313471 -0.54422253 2.5090001
-1.123476 -0.54357183 2.506
-1.1156207 -0.54292107 2.503
-1.0980326 -0.53749841 2.4780002
-1.0774908 -0.53055733 2.4460001
-1.0654359 -0.52773756 2.4330001
-1.0578016 -0.52708679 2.4300001
-1.0445577 -0.52361625 2.414
-1.0141928 -0.51146942 2.358
-0.9588964 -0.48652497 2.243
-0.77267337 -0.3993279 1.8410001
-0.78164923 -0.40648589 1.8740001
-0.76019484 -0.39780957 1.8340001
-0.7525413 -0.3962912 1.8270001
-0.74656129 -0.39564046 1.8240001
-0.72392225 -0.38609651 1.7800001
-0.71888828 -0.38587961 1.779
-0.71426105 -0.38587961 1.779
-0.70684153 -0.38436124 1.7720001
-0.70104361 -0.3837105 1.7690001
-0.69486767 -0.3828429 1.7650001
-0.6863659 -0.38067383 1.7550001
-0.68141258 -0.38045689 1.7540001
-0.67453504 -0.37915543 1.748
-0.66845524 -0.37828782 1.7440001
-0.66125423 -0.37676945 1.7370001
-0.65598011 -0.37633565 1.7350001
-0.65484661 -0.37828782 1.7440001
-0.64620864 -0.37590182 1.733
-0.63503599 -0.37199748 1.715
-0.63167822 -0.37264821 1.7180001
-0.62611443 -0.37199748 1.715
-0.62890327 -0.37633565 1.7350001
-0.62007189 -0.37373275 1.723
-0.61523306 -0.37351584 1.7220001
-0.61075407 -0.37351584 1.7220001
-0.60627508 -0.37351584 1.7220001
-0.60179609 -0.37351584 1.7220001
-0.59801084 -0.37394965 1.7240001
-0.59387094 -0.37416655 1.725
-0.58938414 -0.37416655 1.725
-0.58421922 -0.37373275 1.723
-0.57839179 -0.37286511 1.7190001
-0.56958026 -0.3700453 1.7060001
-0.56083643 -0.3672255 1.6930001
-0.55117422 -0.36375496 1.677
-0.54355156 -0.36158589 1.6670001
-0.53856874 -0.36115208 1.6650001
-0.52878338 -0.35746464 1.6480001
-0.52226895 -0.35594627 1.641
-0.51673806 -0.35507864 1.6370001
-0.50966257 -0.35312647 1.628
-0.50356531 -0.35182503 1.6220001
-0.49626788 -0.34965596 1.6120001
-0.4899382 -0.34813756 1.605
-0.48455289 -0.34726995 1.6010001
-0.48008856 -0.34705302 1.6
-0.47503459 -0.34640232 1.5970001
-0.46999615 -0.34575161 1.5940001
-0.46497333 -0.34510088 1.5910001
-0.4602558 -0.34466705 1.5890001
-0.45526159 -0.34401634 1.5860001
-0.45056745 -0.34358251 1.5840001
-0.44560188 -0.34293178 1.5810001
-0.44121039 -0.34271488 1.58
-0.43654743 -0.34228107 1.5780001
-0.43216896 -0.34206414 1.577
-0.42779571 -0.34184724 1.5760001
-0.42396528 -0.34206414 1.577
-0.41986346 -0.34206414 1.577
-0.41602528 -0.34228107 1.5780001
-0.41218185 -0.34249797 1.5790001
-0.40859172 -0.34293178 1.5810001
-0.4047353 -0.34314868 1.582
-0.40087369 -0.34336561 1.5830001
-0.3970069 -0.34358251 1.5840001
-0.39288685 -0.34358251 1.5840001
-0.38876683 -0.34358251 1.5840001
-0.38464677 -0.34358251 1.5840001
-0.38052672 -0.34358251 1.5840001
-0.37616906 -0.34336561 1.5830001
-0.3720516 -0.34336561 1.5830001
-0.36816663 -0.34358251 1.5840001
-0.36404657 -0.34358251 1.5840001
-0.36038095 -0.34401634 1.5860001
-0.35648036 -0.34423324 1.5870001
-0.35279655 -0.34466705 1.5890001
-0.34866351 -0.34466705 1.5890001
-0.34474728 -0.34488395 1.59
-0.34082586 -0.34510088 1.5910001
-0.33668759 -0.34510088 1.5910001
-0.33234033 -0.34488395 1.59
-0.32799825 -0.34466705 1.5890001
-0.32325375 -0.34401634 1.5860001
-0.31872609 -0.34358251 1.5840001
-0.31381157 -0.34271488 1.58
-0.30891791 -0.34184724 1.5760001
-0.3038516 -0.3407627 1.5710001
-0.29919291 -0.34011197 1.5680001
-0.29454985 -0.33946127 1.5650001
-0.28992242 -0.33881053 1.562
-0.28567657 -0.33859363 1.5610001
-0.28143597 -0.3383767 1.5600001
-0.27737832 -0.3383767 1.5600001
-0.2733207 -0.3383767 1.5600001
-0.2694357 -0.33859363 1.5610001
-0.26554549 -0.33881053 1.562
-0.26131526 -0.33859363 1.5610001
-0.25725505 -0.33859363 1.5610001
-0.25335702 -0.33881053 1.562
-0.24913463 -0.33859363 1.5610001
-0.2446034 -0.3379429 1.5580001
-0.24055098 -0.3379429 1.5580001
-0.23634677 -0.337726 1.557
-0.23214777 -0.3375091 1.5560001
-0.22795394 -0.33729216 1.5550001
-0.22390935 -0.33729216 1.5550001
-0.21986473 -0.33729216 1.5550001
-0.21498735 -0.33599073 1.549
-0.21082218 -0.33577383 1.5480001
-0.20679577 -0.33577383 1.5480001
-0.20290032 -0.33599073 1.549
-0.20054036 -0.33881053 1.562
-0.19660333 -0.33902743 1.5630001
-0.1925379 -0.33902743 1.5630001
-0.18919601 -0.3403289 1.5690001
-0.18523295 -0.3405458 1.5700001
-0.18091856 -0.34011197 1.5680001
-0.17672734 -0.33989507 1.567
-0.17199045 -0.33859363 1.5610001
-0.16588622 -0.33447236 1.5420001
-0.16166548 -0.33403856 1.5400001
-0.15765989 -0.33403856 1.5400001
-0.15355451 -0.33382162 1.539
-0.14984304 -0.33447236 1.5420001
-0.14573766 -0.33425549 1.5410001
-0.14172947 -0.33425549 1.5410001
-0.13772127 -0.33425549 1.5410001
-0.1336263 -0.33403856 1.5400001
-0.12844233 -0.33100182 1.526
-0.12422846 -0.33035111 1.5230001
-0.12010913 -0.32991728 1.521
-0.11607659 -0.32970041 1.5200001
-0.1127869 -0.33165255 1.529
-0.1088099 -0.33165255 1.529
-0.10497005 -0.33208635 1.531
-0.10098786 -0.33208635 1.531
-0.0971324 -0.33252022 1.5330001
-0.09265893 -0.33078495 1.5250001
-0.088808663 -0.33121875 1.5270001
-0.084892444 -0.33143568 1.5280001
-0.081023969 -0.33186948 1.5300001
-0.077094726 -0.33208635 1.531
-0.073112547 -0.33208635 1.531
-0.069085203 -0.33186948 1.5300001
-0.065105624 -0.33186948 1.5300001
-0.061086077 -0.33165255 1.529
-0.057071749 -0.33143568 1.5280001
-0.053027857 -0.33100182 1.526
-0.049026527 -0.33078495 1.5250001
-0.045000855 -0.33035111 1.5230001
-0.040985581 -0.32991728 1.521
-0.03695637 -0.32926658 1.5180001
-0.032942757 -0.32861584 1.5150001
-0.028925613 -0.32774821 1.511
-0.024945818 -0.32709748 1.508
-0.020995572 -0.32666367 1.506
-0.017067071 -0.32644677 1.5050001
-0.013152509 -0.32644677 1.5050001
-0.0092440862 -0.32666367 1.506
-0.0053339987 -0.32709748 1.508
-0.0014144428 -0.32774821 1.511
0.0025207191 -0.32839894 1.5140001
0.0064757536 -0.32926658 1.5180001
0.010444729 -0.32991728 1.521
0.014438778 -0.33078495 1.5250001
0.018441569 -0.33143568 1.5280001
0.022459961 -0.33208635 1.531
0.026493965 -0.33273709 1.534
0.030523699 -0.33317092 1.536
0.03458631 -0.33382162 1.539
0.038689606 -0.33468929 1.5430001
0.042786032 -0.33534002 1.5460001
0.046898063 -0.33599073 1.549
0.051025704 -0.33664146 1.552
0.055168945 -0.33729216 1.5550001
0.059365876 -0.3381598 1.559
0.063583612 -0.33902743 1.5630001
0.067778885 -0.33967817 1.5660001
0.07198976 -0.3403289 1.5690001
0.076216228 -0.34097961 1.572
0.08107134 -0.34423324 1.5870001
0.085252866 -0.34445015 1.5880001
0.089383312 -0.34445015 1.5880001
0.093454875 -0.34423324 1.5870001
0.097521231 -0.34401634 1.5860001
0.10164647 -0.34401634 1.5860001
0.10570503 -0.34379941 1.585
0.10975838 -0.34358251 1.5840001
0.11373463 -0.34314868 1.582
0.11784947 -0.34314868 1.582
0.12188723 -0.34293178 1.5810001
0.12591976 -0.34271488 1.58
0.12994711 -0.34249797 1.5790001
0.13405415 -0.34249797 1.5790001
0.1381612 -0.34249797 1.5790001
0.14172763 -0.34119654 1.5730001
0.14591175 -0.34141344 1.5740001
0.1502917 -0.34206414 1.577
0.15458934 -0.34249797 1.5790001
0.15899788 -0.34314868 1.582
0.16342205 -0.34379941 1.585
0.16796751 -0.34466705 1.5890001
0.17242549 -0.34531778 1.5920001
0.17689905 -0.34596848 1.595
0.18138824 -0.34661922 1.598
0.18589303 -0.34726995 1.6010001
0.19029471 -0.34770375 1.603
0.19361499 -0.34618542 1.5960001
0.19776624 -0.34618542 1.5960001
0.20204403 -0.34640232 1.5970001
0.20632699 -0.34661922 1.598
0.21061516 -0.34683615 1.5990001
0.21490853 -0.34705302 1.6
0.21920712 -0.34726995 1.6010001
0.22351089 -0.34748688 1.6020001
0.22938322 -0.35008976 1.6140001
0.23285769 -0.34900522 1.6090001
0.23763202 -0.34987283 1.613
0.24137774 -0.34922212 1.6100001
0.24510783 -0.34857142 1.6070001
0.24897744 -0.34813756 1.605
0.25252122 -0.34726995 1.6010001
0.25588381 -0.34618542 1.5960001
0.25938338 -0.34531778 1.5920001
0.26319316 -0.34488395 1.59
0.26665628 -0.34401634 1.5860001
0.27044007 -0.34358251 1.5840001
0.2740401 -0.34293178 1.5810001
0.27797639 -0.34271488 1.58
0.28190753 -0.34249797 1.5790001
0.28583339 -0.34228107 1.5780001
0.28993782 -0.34228107 1.5780001
0.29404229 -0.34228107 1.5780001
0.29814669 -0.34228107 1.5780001
0.3024427 -0.34249797 1.5790001
0.30654976 -0.34249797 1.5790001
0.31065676 -0.34249797 1.5790001
0.31476381 -0.34249797 1.5790001
0.31887087 -0.34249797 1.5790001
0.32277334 -0.34228107 1.5780001
0.32667062 -0.34206414 1.577
0.33056274 -0.34184724 1.5760001
0.33402491 -0.34119654 1.5730001
0.33811635 -0.34119654 1.5730001
0.3419902 -0.34097961 1.572
0.34563872 -0.3405458 1.5700001
0.34949964 -0.3403289 1.5690001
0.35335529 -0.34011197 1.5680001
0.35743371 -0.34011197 1.5680001
0.36151215 -0.34011197 1.5680001
0.36559057 -0.34011197 1.5680001
0.36966899 -0.34011197 1.5680001
0.3739858 -0.3403289 1.5690001
0.37830776 -0.3405458 1.5700001
0.38263497 -0.3407627 1.5710001
0.38721353 -0.34119654 1.5730001
0.3915537 -0.34141344 1.5740001
0.39615047 -0.34184724 1.5760001
0.40101159 -0.34249797 1.5790001
0.40563178 -0.34293178 1.5810001
0.41052154 -0.34358251 1.5840001
0.4156886 -0.34445015 1.5880001
0.42193407 -0.34618542 1.5960001
0.42528439 -0.34553468 1.5930001
0.43077567 -0.34661922 1.598
0.43602082 -0.34748688 1.6020001
0.44101202 -0.34813756 1.605
0.44601879 -0.34878829 1.608
0.45076123 -0.34922212 1.6100001
0.45523149 -0.34943902 1.6110001
0.45942172 -0.34943902 1.6110001
0.46332422 -0.34922212 1.6100001
0.46722153 -0.34900522 1.6090001
0.47082064 -0.34857142 1.6070001
0.47440931 -0.34813756 1.605
0.47798765 -0.34770375 1.603
0.48155552 -0.34726995 1.6010001
0.48480961 -0.34661922 1.598
0.48866013 -0.34640232 1.5970001
0.49250537 -0.34618542 1.5960001
0.4963454 -0.34596848 1.595
0.50049412 -0.34596848 1.595
0.50464272 -0.34596848 1.595
0.50879139 -0.34596848 1.595
0.51326168 -0.34618542 1.5960001
0.51806128 -0.34661922 1.598
0.52287132 -0.34705302 1.6
0.52703303 -0.34705302 1.6
0.53119463 -0.34705302 1.6
0.53535628 -0.34705302 1.6
0.53951794 -0.34705302 1.6
0.39772511 -0.23252553 1.072
0.40051341 -0.23252553 1.072
0.40217304 -0.23187481 1.069
0.40457478 -0.23165791 1.0680001
0.40697125 -0.23144099 1.067
0.40859449 -0.23079027 1.064
0.41097543 -0.23057337 1.0630001
0.41335109 -0.23035645 1.062
0.41493791 -0.22970572 1.059
0.41690359 -0.22927192 1.057
0.41885886 -0.2288381 1.0550001
0.42160293 -0.2288381 1.0550001
0.3973169 -0.21018399 0.96900004
0.38816488 -0.20150767 0.92900002
0.38931999 -0.20085695 0.92600006
0.39088243 -0.20042312 0.92400002
0.39243454 -0.19998932 0.92200005
0.39397624 -0.1995555 0.92000002
0.39593834 -0.19933859 0.91900003
0.39746183 -0.19890478 0.91700006
0.3989749 -0.19847095 0.91500002
0.40047759 -0.19803715 0.91300005
0.40196985 -0.19760333 0.91100007
0.40345171 -0.19716951 0.90900004
0.40536961 -0.19695261 0.90800005
0.40773135 -0.19695261 0.90800005
0.40964147 -0.1967357 0.90700006
0.41154632 -0.19651878 0.90600002
0.41390285 -0.19651878 0.90600002
0.41625941 -0.19651878 0.90600002
0.41907802 -0.1967357 0.90700006
0.42143714 -0.1967357 0.90700006
0.42426357 -0.19695261 0.90800005
0.42662528 -0.19695261 0.90800005
0.42898703 -0.19695261 0.90800005
0.43134874 -0.19695261 0.90800005
0.43371052 -0.19695261 0.90800005
0.43607226 -0.19695261 0.90800005
0.43843397 -0.19695261 0.90800005
0.4403103 -0.1967357 0.90700006
0.44266942 -0.1967357 0.90700006
0.44453788 -0.19651878 0.90600002
0.44640118 -0.19630188 0.90500003
0.44825923 -0.19608498 0.90400004
0.45011213 -0.19586806 0.90300006
0.45195982 -0.19565116 0.90200007
0.45480961 -0.19586806 0.90300006
-1.2578351 -0.50962228 2.378
-1.2548079 -0.51090813 2.3840001
-1.2470357 -0.51026523 2.381
-1.2392793 -0.50962228 2.378
-1.233094 -0.50962228 2.378
-1.2274247 -0.50983661 2.3790002
-1.2212369 -0.50983661 2.3790002
-1.2119846 -0.50855076 2.3730001
-1.2271541 -0.51755166 2.4150002
-1.2213781 -0.517766 2.4160001
-1.2155969 -0.51798028 2.4170001
-1.2098106 -0.51819462 2.4180002
-1.2035213 -0.51819462 2.4180002
-1.1977271 -0.51840889 2.4190001
-1.1924202 -0.51883751 2.421
-1.1866132 -0.51905185 2.4220002
-1.1793387 -0.51862317 2.4200001
-1.1701359 -0.51733732 2.414
-1.1884454 -0.52826703 2.4650002
-1.183952 -0.52912426 2.4690001
-1.1794378 -0.52998149 2.473
-1.1739541 -0.53041011 2.4750001
-1.1778945 -0.5351249 2.4970002
-1.172807 -0.53576773 2.5
-1.168637 -0.53683931 2.5050001
-1.164905 -0.53812516 2.5110002
-1.160219 -0.53898239 2.5150001
-1.1536773 -0.53898239 2.5150001
-1.1466796 -0.53876811 2.5140002
-1.1387801 -0.53812516 2.5110002
-1.1308962 -0.53748226 2.5080001
-1.1230278 -0.53683931 2.5050001
-1.115175 -0.53619641 2.5020001
-1.0882841 -0.52633828 2.4560001
-1.0783719 -0.52462381 2.4480002
-1.0636842 -0.52055198 2.4290001
-1.0573664 -0.52055198 2.4290001
-1.0307111 -0.51047957 2.3820002
-0.99741864 -0.49697816 2.319
-0.77225363 -0.39432508 1.84
-0.76746774 -0.39432508 1.84
-0.73988432 -0.3825382 1.7850001
-0.73482955 -0.38232386 1.784
-0.72937071 -0.38189527 1.7820001
-0.72310889 -0.38103804 1.7780001
-0.71767604 -0.38060945 1.7760001
-0.71385962 -0.38103804 1.7780001
-0.70604378 -0.3793236 1.7700001
-0.70421398 -0.38082373 1.7770001
-0.67990732 -0.3701084 1.7270001
-0.67697966 -0.3709656 1.7310001
-0.66820389 -0.36860821 1.72
-0.65987122 -0.36646515 1.71
-0.6554234 -0.36646515 1.71
-0.65059501 -0.36625084 1.7090001
-0.64501554 -0.36560792 1.7060001
-0.64057815 -0.36560792 1.7060001
-0.63502216 -0.36496499 1.7030001
-0.63762802 -0.36903685 1.7220001
-0.63278127 -0.36882254 1.7210001
-0.62428898 -0.36646515 1.71
-0.61802882 -0.36539361 1.705
-0.61467367 -0.36603653 1.7080001
-0.61344665 -0.36796531 1.7170001
-0.60862601 -0.367751 1.7160001
-0.60451472 -0.36796531 1.7170001
-0.60004872 -0.36796531 1.7170001
-0.59627646 -0.36839393 1.7190001
-0.58905113 -0.36667946 1.7110001
-0.58118403 -0.3645364 1.7010001
-0.57472521 -0.36325055 1.6950001
-0.56897062 -0.36239332 1.6910001
-0.56089967 -0.36003596 1.6800001
-0.55918008 -0.36175039 1.6880001
-0.54065686 -0.35253519 1.6450001
-0.53637815 -0.35253519 1.6450001
-0.52983522 -0.35103506 1.6380001
-0.52589554 -0.35124934 1.6390001
-0.51940459 -0.34974921 1.6320001
-0.51389706 -0.34889197 1.628
-0.50559282 -0.34610599 1.6150001
-0.50015026 -0.34524876 1.6110001
-0.49380502 -0.3437486 1.6040001
-0.48871717 -0.34310567 1.6010001
-0.4836449 -0.34246275 1.598
-0.47888836 -0.34203416 1.5960001
-0.47384477 -0.34139124 1.5930001
-0.46911156 -0.34096262 1.5910001
-0.46438885 -0.340534 1.5890001
-0.45938686 -0.33989108 1.5860001
-0.4549745 -0.33967677 1.585
-0.45028299 -0.33924815 1.5830001
-0.44588369 -0.33903384 1.582
-0.44148964 -0.33881953 1.5810001
-0.43710071 -0.33860523 1.58
-0.43271708 -0.33839095 1.5790001
-0.42861006 -0.33839095 1.5790001
-0.42477182 -0.33860523 1.58
-0.42092842 -0.33881953 1.5810001
-0.41707984 -0.33903384 1.582
-0.41296497 -0.33903384 1.582
-0.40910858 -0.33924815 1.5830001
-0.40550283 -0.33967677 1.585
-0.40138015 -0.33967677 1.585
-0.39750817 -0.33989108 1.5860001
-0.39338291 -0.33989108 1.5860001
-0.3892577 -0.33989108 1.5860001
-0.38488957 -0.33967677 1.585
-0.38076693 -0.33967677 1.585
-0.37664431 -0.33967677 1.585
-0.37252167 -0.33967677 1.585
-0.36839902 -0.33967677 1.585
-0.36450621 -0.33989108 1.5860001
-0.3608354 -0.34031969 1.5880001
-0.3569296 -0.340534 1.5890001
-0.35301855 -0.34074831 1.59
-0.34888291 -0.34074831 1.59
-0.34496409 -0.34096262 1.5910001
-0.34104007 -0.34117693 1.5920001
-0.33668759 -0.34096262 1.5910001
-0.33234033 -0.34074831 1.59
-0.32779184 -0.34031969 1.5880001
-0.32325375 -0.33989108 1.5860001
-0.31832364 -0.33903384 1.582
-0.31361297 -0.33839095 1.5790001
-0.30872187 -0.33753368 1.575
-0.3038516 -0.33667648 1.5710001
-0.29881129 -0.33560494 1.5660001
-0.29417345 -0.33496201 1.5630001
-0.28973681 -0.33453339 1.5610001
-0.28549355 -0.33431908 1.5600001
-0.28125554 -0.33410478 1.559
-0.27720052 -0.33410478 1.559
-0.2733207 -0.33431908 1.5600001
-0.26874527 -0.33367616 1.557
-0.26503545 -0.33410478 1.559
-0.26114786 -0.33431908 1.5600001
-0.25741985 -0.3347477 1.562
-0.25351924 -0.33496201 1.5630001
-0.25025183 -0.33603355 1.5680001
-0.24507439 -0.33453339 1.5610001
-0.24101417 -0.33453339 1.5610001
-0.23695396 -0.33453339 1.5610001
-0.23289374 -0.33453339 1.5610001
-0.22883351 -0.33453339 1.5610001
-0.2247733 -0.33453339 1.5610001
-0.22085446 -0.3347477 1.562
-0.21748559 -0.33581924 1.567
-0.21368217 -0.33624786 1.5690001
-0.20960113 -0.33624786 1.5690001
-0.20565107 -0.33646217 1.5700001
-0.20131069 -0.33603355 1.5680001
-0.19735804 -0.33624786 1.5690001
-0.19327703 -0.33624786 1.5690001
-0.18955775 -0.33689076 1.572
-0.18605883 -0.3379623 1.577
-0.18184161 -0.33774802 1.5760001
-0.17740403 -0.3371051 1.5730001
-0.17177008 -0.33410478 1.559
-0.16879086 -0.33624786 1.5690001
-0.16502476 -0.33689076 1.572
-0.16052642 -0.33603355 1.5680001
-0.15475182 -0.33239034 1.5510001
-0.1503289 -0.3315331 1.5470001
-0.14621054 -0.3313188 1.5460001
-0.14228129 -0.3315331 1.5470001
-0.13825749 -0.3315331 1.5470001
-0.13414693 -0.3313188 1.5460001
-0.12995738 -0.33089018 1.544
-0.12488099 -0.32810417 1.531
-0.1206619 -0.32746127 1.5280001
-0.11661115 -0.32724696 1.5270001
-0.11315572 -0.32874709 1.534
-0.10916572 -0.32874709 1.534
-0.1052443 -0.3289614 1.5350001
-0.10131767 -0.32917571 1.536
-0.097385846 -0.32939002 1.5370001
-0.093023486 -0.32810417 1.531
-0.089099459 -0.32831848 1.5320001
-0.085170232 -0.32853281 1.5330001
-0.081288747 -0.3289614 1.5350001
-0.077346511 -0.32917571 1.536
-0.073351316 -0.32917571 1.536
-0.069310971 -0.3289614 1.5350001
-0.065318383 -0.3289614 1.5350001
-0.061285835 -0.32874709 1.534
-0.057258502 -0.32853281 1.5330001
-0.053201605 -0.32810417 1.531
-0.049187269 -0.32788989 1.5300001
-0.045148592 -0.32746127 1.5280001
-0.041147258 -0.32724696 1.5270001
-0.037102439 -0.32660404 1.524
-0.03307322 -0.32596111 1.521
-0.029040473 -0.32510388 1.5170001
-0.025045073 -0.32446095 1.5140001
-0.02107922 -0.32403237 1.5120001
-0.017135112 -0.32381803 1.511
-0.013204943 -0.32381803 1.511
-0.0092809154 -0.32403237 1.5120001
-0.0053552217 -0.32446095 1.5140001
-0.0014200594 -0.32510388 1.5170001
0.0025307089 -0.3257468 1.5200001
0.0065013492 -0.32660404 1.524
0.01048593 -0.32724696 1.5270001
0.014486118 -0.32788989 1.5300001
0.018513981 -0.32874709 1.534
0.022547983 -0.32939002 1.5370001
0.026597593 -0.33003294 1.5400001
0.030642932 -0.33046156 1.5420001
0.034721151 -0.33110449 1.5450001
0.038840052 -0.33196169 1.549
0.042952083 -0.33260462 1.552
0.047109999 -0.33346188 1.5560001
0.051255845 -0.33410478 1.559
0.055452775 -0.33496201 1.5630001
0.059670515 -0.33581924 1.567
0.063868381 -0.33646217 1.5700001
0.068081856 -0.3371051 1.5730001
0.072310939 -0.33774802 1.5760001
0.077040456 -0.340534 1.5890001
0.081173509 -0.340534 1.5890001
0.085360236 -0.34074831 1.59
0.089495882 -0.34074831 1.59
0.093572646 -0.340534 1.5890001
0.097644202 -0.34031969 1.5880001
0.10177465 -0.34031969 1.5880001
0.10583842 -0.34010538 1.5870001
0.10989697 -0.33989108 1.5860001
0.11387842 -0.33946246 1.5840001
0.11799847 -0.33946246 1.5840001
0.12204142 -0.33924815 1.5830001
0.12615885 -0.33924815 1.5830001
0.13019399 -0.33903384 1.582
0.13430884 -0.33903384 1.582
0.13781118 -0.33753368 1.575
0.14208801 -0.3379623 1.577
0.14637525 -0.33839095 1.5790001
0.15067291 -0.33881953 1.5810001
0.15498094 -0.33924815 1.5830001
0.15929939 -0.33967677 1.585
0.16373137 -0.34031969 1.5880001
0.16817893 -0.34096262 1.5910001
0.1726421 -0.34160554 1.5940001
0.17712088 -0.34224847 1.5970001
0.18150176 -0.34267709 1.5990001
0.18542859 -0.34224847 1.5970001
0.19005729 -0.34310567 1.6010001
0.19446416 -0.34353429 1.603
0.19801407 -0.34246275 1.598
0.20229705 -0.34267709 1.5990001
0.20671435 -0.34310567 1.6010001
0.21101031 -0.34332001 1.6020001
0.21531148 -0.34353429 1.603
0.2197548 -0.34396291 1.605
0.2256037 -0.34653461 1.6170001
0.22980958 -0.34653461 1.6170001
0.23329185 -0.34546307 1.6120001
0.23748471 -0.34546307 1.6120001
0.24122782 -0.34482014 1.6090001
0.24510783 -0.34439152 1.6070001
0.24882232 -0.3437486 1.6040001
0.25236347 -0.34289137 1.6
0.25668547 -0.34310567 1.6010001
0.25987214 -0.34181982 1.595
0.26335868 -0.34096262 1.5910001
0.26699254 -0.34031969 1.5880001
0.27061078 -0.33967677 1.585
0.27438676 -0.33924815 1.5830001
0.27832824 -0.33903384 1.582
0.28208604 -0.33860523 1.58
0.28619567 -0.33860523 1.58
0.29030532 -0.33860523 1.58
0.29441497 -0.33860523 1.58
0.29871354 -0.33881953 1.5810001
0.30282578 -0.33881953 1.5810001
0.30713215 -0.33903384 1.582
0.31124696 -0.33903384 1.582
0.31536183 -0.33903384 1.582
0.31927475 -0.33881953 1.5810001
0.32338697 -0.33881953 1.5810001
0.32729205 -0.33860523 1.58
0.33119199 -0.33839095 1.5790001
0.33487427 -0.3379623 1.577
0.33897611 -0.3379623 1.577
0.34264284 -0.33753368 1.575
0.34651935 -0.3373194 1.5740001
0.35016787 -0.33689076 1.572
0.35425669 -0.33689076 1.572
0.35834551 -0.33689076 1.572
0.36243436 -0.33689076 1.572
0.36652318 -0.33689076 1.572
0.37084779 -0.3371051 1.5730001
0.37493923 -0.3371051 1.5730001
0.3792716 -0.3373194 1.5740001
0.38360921 -0.33753368 1.575
0.387952 -0.33774802 1.5760001
0.39254874 -0.33817661 1.5780001
0.39715591 -0.33860523 1.58
0.40177348 -0.33903384 1.582
0.40665805 -0.33967677 1.585
0.41155818 -0.34031969 1.5880001
0.41673571 -0.34117693 1.5920001
0.42166966 -0.34181982 1.595
0.42822108 -0.3437486 1.6040001
0.43185398 -0.34332001 1.6020001
0.4371095 -0.34417722 1.6060001
0.44183633 -0.34460583 1.608
0.44685093 -0.34524876 1.6110001
0.45160112 -0.34567735 1.613
0.45607921 -0.34589168 1.6140001
0.46027729 -0.34589168 1.6140001
0.46418753 -0.34567735 1.613
0.46780229 -0.34524876 1.6110001
0.47140661 -0.34482014 1.6090001
0.4750005 -0.34439152 1.6070001
0.47858399 -0.34396291 1.605
0.48215708 -0.34353429 1.603
0.48571977 -0.34310567 1.6010001
0.48957807 -0.34289137 1.6
0.49343115 -0.34267709 1.5990001
0.49727899 -0.34246275 1.598
0.50143546 -0.34246275 1.598
0.50559193 -0.34246275 1.598
0.50974834 -0.34246275 1.598
0.51422644 -0.34267709 1.5990001
0.51903385 -0.34310567 1.6010001
0.52352494 -0.34332001 1.6020001
0.52769184 -0.34332001 1.6020001
0.53185868 -0.34332001 1.6020001
0.53602552 -0.34332001 1.6020001
0.54019237 -0.34332001 1.6020001
0.54469901 -0.34353429 1.603
0.54886848 -0.34353429 1.603
0.55303794 -0.34353429 1.603
0.55685985 -0.34332001 1.6020001
0.56137687 -0.34353429 1.603
0.56519353 -0.34332001 1.6020001
0.40658987 -0.22845139 1.0660001
0.40744248 -0.22737986 1.0610001
0.40942892 -0.22695123 1.059
0.411405 -0.22652261 1.057
0.41376245 -0.2263083 1.056
0.41532594 -0.22566539 1.0530001
0.41687372 -0.22502246 1.0500001
0.42040405 -0.22545108 1.052
0.39567679 -0.20680636 0.96500003
0.38858274 -0.19930562 0.93000007
0.38974041 -0.1986627 0.92700005
0.39130551 -0.19823408 0.92500007
0.39286017 -0.19780546 0.92300004
0.39440447 -0.19737685 0.92100006
0.39593834 -0.19694823 0.91900003
0.39746183 -0.19651963 0.91700006
0.3989749 -0.196091 0.91500002
0.40047759 -0.19566239 0.91300005
0.40196985 -0.19523378 0.91100007
0.40389556 -0.19501947 0.91000003
0.40581605 -0.19480516 0.90900004
0.40818039 -0.19480516 0.90900004
0.4100931 -0.19459085 0.90800005
0.4120006 -0.19437656 0.90700006
0.41481656 -0.19459085 0.90800005
0.41717833 -0.19459085 0.90800005
0.4200021 -0.19480516 0.90900004
0.42236644 -0.19480516 0.90900004
0.42519805 -0.19501947 0.91000003
0.42803484 -0.19523378 0.91100007
0.43040439 -0.19523378 0.91100007
0.43277392 -0.19523378 0.91100007
0.4351435 -0.19523378 0.91100007
0.43751302 -0.19523378 0.91100007
0.43988258 -0.19523378 0.91100007
0.44225213 -0.19523378 0.91100007
0.44413358 -0.19501947 0.91000003
0.44600987 -0.19480516 0.90900004
0.44837421 -0.19480516 0.90900004
0.4502427 -0.19459085 0.90800005
0.45260444 -0.19459085 0.90800005
0.45396405 -0.19416223 0.90600002
0.45632058 -0.19416223 0.90600002
-1.2636536 -0.5057658 2.3890002
-1.2558607 -0.50513071 2.3860002
-1.2496545 -0.50513071 2.3860002
-1.2418851 -0.50449556 2.3830001
-1.2341311 -0.50386041 2.3800001
-1.2279407 -0.50386041 2.3800001
-1.2412572 -0.51190531 2.4180002
