# .PCD v0.7 - Point Cloud Data file format
VERSION 0.7
FIELDS x y z
SIZE 4 4 4
TYPE F F F
COUNT 1 1 1
WIDTH 1547
HEIGHT 1
VIEWPOINT 0 0 0 1 0 0 0
POINTS 1547
DATA ascii
0.98092902 0.6494264 2.1230001
0.9739055 0.6411671 2.0960002
0.9672088 0.6332137 2.0700002
0.96883404 0.63076645 2.062
0.96049619 0.62189531 2.033
0.96245873 0.61975402 2.026
0.96581787 0.61853045 2.0220001
0.97059697 0.61822456 2.0210001
0.97392219 0.617001 2.0170002
0.97819757 0.61638916 2.0150001
0.98148644 0.61516559 2.0110002
0.98573577 0.61455375 2.0090001
0.98849505 0.61302429 2.0040002
0.9902364 0.61088294 1.9970001
0.99243987 0.60904753 1.9910001
0.99661648 0.60843575 1.9890001
1.0017899 0.60843575 1.9890001
1.0100009 0.61027116 1.9950001
1.0162077 0.61088294 1.9970001
1.0234479 0.61210656 2.0010002
-1.7216766 1.0091079 3.2710001
-1.7461643 1.0285435 3.3340001
-1.7515633 1.036873 3.3610001
-1.757859 1.0458195 3.3900001
-1.771227 1.0590851 3.4330001
-1.7843713 1.0723506 3.4760001
-1.7799268 1.0751272 3.4850001
-1.7845818 1.0834568 3.5120001
-1.7815135 1.0871588 3.5240002
-1.7834121 1.0939459 3.5460002
-1.7876978 1.1022754 3.5730002
-1.7784042 1.1022754 3.5730002
-1.7691108 1.1022754 3.5730002
-1.7598174 1.1022754 3.5730002
-1.7328863 1.0911692 3.5370002
-1.7207624 1.0893183 3.5310001
-1.6805556 1.0695742 3.4670002
-1.6590024 1.0615531 3.4410002
-1.6495726 1.0612446 3.4400001
-1.6039019 1.03749 3.3630002
-1.5946803 1.0371815 3.3620002
-1.5826335 1.035022 3.3550003
-1.5532656 1.0214479 3.3110001
-1.5451201 1.0217565 3.3120003
-1.5369693 1.0220649 3.3130002
-1.5288134 1.0223734 3.3140001
-1.5380837 1.034405 3.3530002
-1.5316429 1.0359476 3.3580003
-1.5378747 1.0461282 3.3910003
-1.5277019 1.0452026 3.3880002
-1.5292007 1.0522981 3.4110003
-1.5368201 1.0637126 3.4480002
-1.5274086 1.0634042 3.4470003
-1.5012628 1.0513726 3.4080002
-1.4932742 1.0519896 3.4100001
-1.4839694 1.051681 3.4090002
-1.459525 1.040575 3.3730001
-1.4331173 1.0279266 3.3320003
-1.4235957 1.0273095 3.3300002
-1.3936889 1.0118845 3.2800002
-1.3661538 0.99800187 3.2350001
-1.351444 0.99337435 3.2200003
-1.3355608 0.98782134 3.2020001
-1.3210146 0.98319376 3.187
-1.2941897 0.96931124 3.1420002
-1.2847894 0.96838576 3.1390002
-1.2754046 0.96746022 3.1360002
-1.2547208 0.95789671 3.1050003
-1.2466446 0.95789671 3.1050003
-1.2385683 0.95789671 3.1050003
-1.2308884 0.95820522 3.1060002
-1.2235969 0.95882213 3.108
-1.2307655 0.97085375 3.1470001
-1.2241341 0.9720878 3.1510003
-1.2174817 0.9733218 3.1550002
-1.2104253 0.97424728 3.1580002
-1.2143931 0.9841193 3.1900001
-1.2072302 0.98504478 3.1930001
-1.2000514 0.98597032 3.1960001
-1.1921115 0.98627883 3.1970003
-1.1960154 0.99645936 3.2300003
-1.1887169 0.99738485 3.233
-1.1872444 1.0032463 3.2520001
-1.1809607 1.0050974 3.2580001
-1.1735661 1.0060229 3.2610002
-1.1661561 1.0069484 3.2640002
-1.1583756 1.0075654 3.2660003
-1.1579784 1.014661 3.2890003
-1.1522193 1.0171289 3.2970002
-1.1429499 1.0165119 3.2950001
-1.1343795 1.0165119 3.2950001
-1.1285425 1.01898 3.3030002
-1.1202904 1.0192884 3.3040001
-1.1123695 1.0199054 3.3060002
-1.1010995 1.0174375 3.2980001
-1.0925212 1.0174375 3.2980001
-1.0875584 1.020831 3.3090003
-1.0789516 1.020831 3.3090003
-1.0700213 1.0205225 3.3080001
-1.0607754 1.0199054 3.3060002
-1.0483571 1.0162034 3.2940001
-1.0394737 1.015895 3.2930002
-1.033726 1.0186714 3.302
-1.0217222 1.015278 3.2910001
-1.0128545 1.0149695 3.2900002
-1.0039918 1.014661 3.2890003
-0.99483156 1.0140439 3.2870002
-0.985982 1.0137354 3.2860003
-0.97684008 1.0131184 3.2840002
-0.96977246 1.014661 3.2890003
-0.96063316 1.0140439 3.2870002
-0.95005602 1.0118845 3.2800002
-0.94123751 1.0115759 3.279
-0.93242431 1.0112674 3.2780001
-0.92361629 1.0109589 3.2770002
-0.91732669 1.0134269 3.2850001
-0.90961212 1.0143524 3.2880001
-0.90188211 1.015278 3.2910001
-0.89359355 1.0155864 3.2920001
-0.88610631 1.0168204 3.2960002
-0.87779951 1.0171289 3.2970002
-0.86975121 1.017746 3.2990003
-0.86090928 1.0174375 3.2980001
-0.86137646 1.028235 3.3330002
-0.85321891 1.028852 3.3350003
-0.84479761 1.0291605 3.3360002
-0.83662182 1.0297775 3.3380001
-0.82818764 1.030086 3.3390002
-0.81999362 1.0307029 3.3410001
-0.81203204 1.0316285 3.3440001
-0.80381465 1.0322455 3.3460002
-0.79677498 1.034405 3.3530002
-0.79533958 1.0439686 3.3840001
-0.78653771 1.0439686 3.3840001
-0.77727616 1.0433515 3.3820002
-0.76438934 1.0377985 3.3640001
-0.75631338 1.0387241 3.3670001
-0.74711162 1.038107 3.3650002
-0.73813969 1.0377985 3.3640001
-0.72873932 1.036873 3.3610001
-0.71935463 1.0359476 3.3580003
-0.70977384 1.0347135 3.3540001
-0.70334923 1.038107 3.3650002
-0.69418383 1.03749 3.3630002
-0.68482506 1.0365645 3.3600001
-0.6756832 1.0359476 3.3580003
-0.66516137 1.0331711 3.3490002
-0.65625447 1.0328624 3.348
-0.64754617 1.0328624 3.348
-0.63902873 1.0331711 3.3490002
-0.63728172 1.0445856 3.3860002
-0.62866014 1.0448941 3.3870001
-0.61985046 1.0448941 3.3870001
-0.61031914 1.04366 3.3830001
-0.60827649 1.0553831 3.4210002
-0.59902787 1.0547661 3.4190001
-0.59099799 1.0563086 3.4240003
-0.58192199 1.0560001 3.4230001
-0.57301867 1.0560001 3.4230001
-0.56395054 1.0556916 3.4220002
-0.55504978 1.0556916 3.4220002
-0.54040349 1.0445856 3.3860002
-0.53191036 1.0452026 3.3880002
-0.52294362 1.0448941 3.3870001
-0.50457078 1.0254585 3.3240001
-0.49667087 1.027001 3.3290002
-0.48874497 1.0285435 3.3340001
-0.47532138 1.0183629 3.3010001
-0.46645257 1.017746 3.2990003
-0.45745534 1.0168204 3.2960002
-0.44860998 1.0162034 3.2940001
-0.44445056 1.026384 3.3270001
-0.43566594 1.0260755 3.3260002
-0.43304908 1.040575 3.3730001
-0.42477891 1.0418091 3.3770001
-0.42240083 1.0578511 3.4290001
-0.41360244 1.0581596 3.4300001
-0.40892828 1.0692656 3.4660001
-0.4040668 1.0803717 3.5020001
-0.39507079 1.0806803 3.5030003
-0.38617972 1.0812972 3.5050001
-0.37727821 1.0819142 3.5070002
-0.37120074 1.0908608 3.5360003
-0.36210585 1.0911692 3.5370002
-0.35320532 1.0920948 3.5400002
-0.34428915 1.0930203 3.5430002
-0.33545196 1.0942543 3.5470002
-0.32622612 1.0942543 3.5470002
-0.31700021 1.0942543 3.5470002
-0.3082082 1.0957968 3.5520003
-0.29896933 1.0957968 3.5520003
-0.27446002 1.1087538 3.5940001
-0.049318571 0.35755306 1.159
-0.046303965 0.35755306 1.159
-0.043326721 0.35786158 1.1600001
-0.040344261 0.35817006 1.161
-0.037388757 0.35878709 1.1630001
-0.034393296 0.35909557 1.164
-0.031419583 0.35971257 1.166
-0.028435467 0.3603296 1.1680001
-0.025440941 0.3609466 1.1700001
-0.022436013 0.36156356 1.1720001
-0.019420683 0.36218056 1.174
-0.016394949 0.36279756 1.176
-0.01335881 0.36341459 1.1780001
-0.010303526 0.36372307 1.179
-0.0072491807 0.3643401 1.1810001
-0.0041808928 0.36464858 1.182
-0.001107403 0.36495709 1.1830001
0.0019712888 0.36526558 1.184
0.0050551831 0.36557409 1.1850001
0.008144279 0.36588261 1.1860001
0.011229109 0.36588261 1.1860001
0.01431394 0.36588261 1.1860001
0.017398771 0.36588261 1.1860001
0.020483602 0.36588261 1.1860001
0.023568431 0.36588261 1.1860001
0.026630787 0.36557409 1.1850001
0.029687939 0.36526558 1.184
0.032712217 0.36464858 1.182
0.035726093 0.36403158 1.1800001
0.038729563 0.36341459 1.1780001
0.041722622 0.36279756 1.176
0.044705287 0.36218056 1.174
0.047677543 0.36156356 1.1720001
0.050682675 0.36125505 1.171
0.053590849 0.3603296 1.1680001
0.056628857 0.3603296 1.1680001
0.059717953 0.36063808 1.169
0.062865928 0.36125505 1.171
0.066024326 0.36187211 1.1730001
0.069193117 0.36248907 1.1750001
0.07237231 0.36310607 1.177
0.075561911 0.36372307 1.179
0.078761928 0.3643401 1.1810001
0.081903033 0.36464858 1.182
0.085049354 0.36495709 1.1830001
0.088051878 0.36464858 1.182
0.091126315 0.36464858 1.182
0.094360128 0.36526558 1.184
0.09752205 0.36557409 1.1850001
0.10051939 0.36526558 1.184
0.10368651 0.36557409 1.1850001
0.10685884 0.36588261 1.1860001
0.11003637 0.36619109 1.187
0.11331441 0.36680809 1.189
0.11689655 0.3683506 1.194
0.11949967 0.36680809 1.189
0.16358967 0.39087123 1.2670001
0.1766322 0.39056268 1.266
0.17907241 0.38871172 1.2600001
0.21050042 0.3862437 1.2520001
0.21392764 0.38655218 1.253
0.21632008 0.38500968 1.248
0.21956617 0.38500968 1.248
0.22245519 0.38439268 1.2460001
0.22533381 0.38377568 1.2440001
0.22838576 0.38346717 1.243
0.23143253 0.38315868 1.2420001
0.23466301 0.38315868 1.2420001
0.2375104 0.38254166 1.24
0.24034742 0.38192466 1.238
0.24435447 0.38315868 1.2420001
0.24738561 0.38285017 1.2410001
0.25041154 0.38254166 1.24
0.25302321 0.38161618 1.2370001
0.2554121 0.38038215 1.233
0.25715095 0.37822264 1.2260001
0.25927806 0.37668017 1.2210001
0.26180908 0.37575465 1.2180001
0.26388937 0.37421215 1.2130001
0.26616386 0.37297815 1.2090001
0.26841748 0.37174413 1.205
0.27110103 0.37112713 1.2030001
0.27331823 0.3698931 1.199
0.27551466 0.36865911 1.1950001
0.27792343 0.3677336 1.192
0.28078812 0.36742511 1.1910001
0.2824558 0.36557409 1.1850001
0.28553802 0.36557409 1.1850001
0.28837669 0.36526558 1.184
0.29145631 0.36526558 1.184
0.2942872 0.36495709 1.1830001
0.29711285 0.36464858 1.182
0.29967934 0.36403158 1.1800001
0.30223545 0.36341459 1.1780001
0.30478111 0.36279756 1.176
0.30705464 0.36187211 1.1730001
0.30957693 0.36125505 1.171
0.31182182 0.3603296 1.1680001
0.31378153 0.35909557 1.164
0.31599259 0.35817006 1.161
0.31818813 0.35724458 1.1580001
0.32064536 0.35662755 1.156
0.32309219 0.35601056 1.154
0.32552865 0.35539356 1.1520001
0.32823986 0.35508505 1.151
0.33123365 0.35508505 1.151
0.33451784 0.35539356 1.1520001
0.33751422 0.35539356 1.1520001
0.34080619 0.35570204 1.153
0.3441034 0.35601056 1.154
0.34740579 0.35631907 1.1550001
0.35071334 0.35662755 1.156
0.35402614 0.35693607 1.1570001
0.35765269 0.35755306 1.159
0.36097851 0.35786158 1.1600001
0.36430949 0.35817006 1.161
0.36796209 0.35878709 1.1630001
0.37098709 0.35878709 1.1630001
0.37433368 0.35909557 1.164
0.37768549 0.35940409 1.1650001
0.38136926 0.36002108 1.1670001
0.38572228 0.36125505 1.171
0.3900961 0.36248907 1.1750001
0.3941561 0.36341459 1.1780001
0.39890611 0.36495709 1.1830001
0.40368214 0.3664996 1.1880001
0.40848416 0.36804211 1.1930001
0.41365719 0.3698931 1.199
0.42685634 0.37883964 1.228
0.43460307 0.38285017 1.2410001
0.44135898 0.38593519 1.251
0.44745615 0.38840321 1.2590001
0.45287892 0.39025423 1.2650001
0.45905402 0.39272219 1.273
0.46381804 0.39395621 1.2770001
0.46823698 0.39488173 1.2800001
0.47193471 0.39519021 1.281
0.47637969 0.39611572 1.284
0.48009303 0.39642423 1.2850001
0.48343536 0.39642423 1.2850001
0.48677772 0.39642423 1.2850001
0.49050143 0.39673272 1.286
0.49346235 0.39642423 1.2850001
0.49680471 0.39642423 1.2850001
0.49430877 0.39179674 1.2700001
0.49682838 0.39117968 1.268
0.98585272 0.75613683 2.4510002
0.99060845 0.75490278 2.447
0.99412119 0.75274324 2.4400001
0.99718755 0.75027531 2.4320002
1.0031008 0.7499668 2.4310002
0.99945819 0.74256271 2.4070001
1.0086437 0.74472225 2.414
1.0119796 0.74256271 2.4070001
1.0110488 0.73731822 2.3900001
1.0113064 0.73299921 2.3760002
1.014917 0.73114818 2.3700001
0.9973855 0.71418059 2.3150001
0.99863911 0.71078712 2.3040001
0.99111468 0.70122355 2.273
0.99044728 0.69659603 2.2580001
0.98705429 0.69011748 2.237
0.99509215 0.69166005 2.2420001
0.97815514 0.67592651 2.1910002
0.98115969 0.67407548 2.1850002
0.97374529 0.66512889 2.1560001
0.97844458 0.66451186 2.154
0.98039246 0.66204393 2.1460001
0.97770423 0.65649086 2.128
0.98046702 0.6546399 2.1220002
0.97344077 0.64631033 2.095
0.96627426 0.63798076 2.0680001
0.96836424 0.63582128 2.0610001
0.96002382 0.62687474 2.0320001
0.9629339 0.62533224 2.0270002
0.97011679 0.62656623 2.0310001
0.97299814 0.62502372 2.026
0.97585362 0.62348121 2.0210001
0.98013937 0.62286419 2.0190001
0.98392671 0.62193871 2.016
0.9881891 0.62132174 2.0140002
0.99096125 0.61977917 2.0090001
1.0016412 0.6231727 2.02
1.0068953 0.6231727 2.02
1.0116484 0.62286419 2.0190001
1.0163962 0.62255573 2.0180001
1.0170887 0.61977917 2.0090001
1.0141723 0.61484319 1.9930001
1.0260051 0.61885369 2.006
-1.7211503 1.0173049 3.2700002
-1.7304519 1.0278823 3.3040001
-1.7510422 1.0453041 3.3600001
-1.7583777 1.0549483 3.3910003
-1.7567807 1.0593038 3.4050002
-1.7741045 1.0751699 3.4560001
-1.7814591 1.0851252 3.4880002
-1.7825493 1.0913472 3.5080001
-1.78303 1.0972582 3.5270002
-1.7819033 1.1022358 3.5430002
-1.771687 1.1016136 3.5410001
-1.7629744 1.1019247 3.5420001
-1.7542568 1.1022358 3.5430002
-1.7440562 1.1016136 3.5410001
-1.7328863 1.1003692 3.5370002
-1.7183257 1.0969471 3.5260003
-1.6800708 1.0782809 3.4660001
-1.6373067 1.0565038 3.3960001
-1.6284734 1.0565038 3.3960001
-1.602948 1.0456152 3.3610001
-1.5942059 1.0456152 3.3610001
-1.552443 1.023838 3.2910001
-1.5420066 1.0225936 3.2870002
-1.5315909 1.0213492 3.2830002
-1.5225877 1.0210381 3.2820001
-1.5140511 1.0210381 3.2820001
-1.5183587 1.0297489 3.3100002
-1.5102053 1.0300601 3.3110001
-1.5220016 1.0440596 3.3560002
-1.5141745 1.0446819 3.3580003
-1.5287523 1.0608592 3.4100001
-1.5176543 1.0593038 3.4050002
-1.5083547 1.0589925 3.404
-1.4999412 1.0593038 3.4050002
-1.4928364 1.0605481 3.4090002
-1.4835342 1.0602371 3.4080002
-1.4586595 1.0487262 3.3710001
-1.4326872 1.0362821 3.3310001
-1.4231682 1.0356599 3.3290002
-1.3936889 1.0204159 3.2800002
-1.3669984 1.0070385 3.2370002
-1.3518636 1.0020609 3.2210002
-1.3351437 0.99583882 3.2010002
-1.3197713 0.9905501 3.1840003
-1.3098419 0.98930562 3.1800001
-1.2847894 0.97655046 3.1390002
-1.2758112 0.97592825 3.1370001
-1.2672478 0.97561717 3.1360002
-1.2582879 0.9749949 3.1340001
-1.2505351 0.97530609 3.1350002
-1.2435699 0.97623938 3.1380002
-1.2365888 0.97717261 3.141
-1.2303743 0.97872818 3.1460001
-1.2237455 0.97997254 3.1500001
-1.2170957 0.98121697 3.154
-1.2215406 0.99148333 3.187
-1.2140125 0.99210554 3.1890001
-1.2068521 0.99303889 3.1920002
-1.2098141 1.0023719 3.2220001
-1.2018064 1.002683 3.223
-1.1952747 1.0042386 3.2280002
-1.1883492 1.0054829 3.2320001
-1.1883396 1.0126383 3.2550001
-1.1816857 1.0141939 3.2600002
-1.1742859 1.0151272 3.2630002
-1.1668706 1.0160605 3.2660003
-1.1594396 1.0169938 3.2690001
-1.1576263 1.0229046 3.2880001
-1.1490741 1.0229046 3.2880001
-1.1408688 1.0232159 3.2890003
-1.1319697 1.0229046 3.2880001
-1.1282008 1.0272601 3.302
-1.1199514 1.0275713 3.3030002
-1.112033 1.0281935 3.3050001
-1.1034365 1.0281935 3.3050001
-1.0948402 1.0281935 3.3050001
-1.0862437 1.0281935 3.3050001
-1.0776472 1.0281935 3.3050001
-1.068404 1.0275713 3.3030002
-1.0556415 1.0235269 3.2900002
-1.0474023 1.023838 3.2910001
-1.0385267 1.0235269 3.2900002
-1.0318476 1.0253936 3.2960002
-1.0217222 1.023838 3.2910001
-1.0128545 1.0235269 3.2900002
-1.0039918 1.0232159 3.2890003
-0.99513423 1.0229046 3.2880001
-0.98628199 1.0225936 3.2870002
-0.97713751 1.0219713 3.2850001
-0.96947759 1.0229046 3.2880001
-0.96063316 1.0225936 3.2870002
-0.95092499 1.0213492 3.2830002
-0.94209862 1.0210381 3.2820001
-0.93356204 1.0210381 3.2820001
-0.92502546 1.0210381 3.2820001
-0.91788518 1.0225936 3.2870002
-0.9098888 1.0232159 3.2890003
-0.90215611 1.0241491 3.2920001
-0.89359355 1.0241491 3.2920001
-0.88691282 1.0263269 3.2990003
-0.87859827 1.0266379 3.3000002
-0.87054211 1.0272601 3.302
-0.86221451 1.0275713 3.3030002
-0.86266863 1.0384598 3.3380001
-0.85552144 1.0403265 3.3440001
-0.84429115 1.0372154 3.3340001
-0.83612061 1.0378376 3.3360002
-0.83066797 1.0418819 3.3490002
-0.82220256 1.0421931 3.3500001
-0.81397474 1.0428153 3.3520002
-0.80525607 1.0428153 3.3520002
-0.79748791 1.0440596 3.3560002
-0.79369438 1.0505928 3.3770001
-0.7853756 1.0512151 3.3790002
-0.77612704 1.0505928 3.3770001
-0.76757056 1.0509039 3.3780003
-0.76080585 1.0537038 3.3870001
-0.75199616 1.0537038 3.3870001
-0.74252814 1.0527705 3.3840001
-0.73329264 1.0521483 3.3820002
-0.72406745 1.0515261 3.3800001
-0.71442944 1.0502818 3.3760002
-0.70376724 1.0474818 3.3670001
-0.69439024 1.0465485 3.3640001
-0.68502891 1.0456152 3.3610001
-0.6756832 1.0446819 3.3580003
-0.66535997 1.0421931 3.3500001
-0.65645051 1.0418819 3.3490002
-0.65412229 1.0521483 3.3820002
-0.64570713 1.0527705 3.3840001
-0.63746989 1.0537038 3.3870001
-0.62884581 1.0540149 3.3880002
-0.62021649 1.0543261 3.3890002
-0.61067998 1.0530816 3.3850002
-0.60809863 1.0639702 3.4200001
-0.59937829 1.0642813 3.4210002
-0.59099799 1.0652146 3.4240003
-0.58192199 1.0649035 3.4230001
-0.57301867 1.0649035 3.4230001
-0.56345612 1.0636591 3.4190001
-0.55504978 1.0645925 3.4220002
-0.546947 1.0661479 3.427
-0.53191036 1.0540149 3.3880002
-0.52294362 1.0537038 3.3870001
-0.50882107 1.0428153 3.3520002
-0.4996548 1.0418819 3.3490002
-0.48918477 1.0381488 3.3370001
-0.48237702 1.0421931 3.3500001
-0.47196683 1.0384598 3.3380001
-0.46272939 1.0372154 3.3340001
-0.45392138 1.0369043 3.3330002
-0.44966054 1.0471708 3.3660002
-0.4410364 1.0474818 3.3670001
-0.43959683 1.0652146 3.4240003
-0.43056506 1.0649035 3.4230001
-0.42683548 1.0779698 3.4650002
-0.41794348 1.0782809 3.4660001
-0.41317567 1.0894806 3.5020001
-0.40395144 1.0891695 3.5010002
-0.39473245 1.0888585 3.5000002
-0.38628989 1.0907251 3.5060003
-0.38029042 1.0997469 3.5350001
-0.37120074 1.1000581 3.5360003
-0.36220822 1.1006802 3.5380001
-0.3533051 1.1016136 3.5410001
-0.34438631 1.1025469 3.5440001
-0.33554655 1.1037914 3.5480001
-0.32641006 1.1041025 3.5490003
-0.31932387 1.1115689 3.5730002
-0.3082082 1.1050358 3.5520003
-0.29896933 1.1050358 3.5520003
-0.29144338 1.1115689 3.5730002
-0.28214985 1.1115689 3.5730002
-0.27446002 1.1181021 3.5940001
-0.26511189 1.1181021 3.5940001
-0.046303965 0.36056769 1.159
-0.043326721 0.3608788 1.1600001
-0.040379014 0.36150101 1.1620001
-0.037453052 0.3624343 1.1650001
-0.03445239 0.3627454 1.166
-0.031473476 0.36336762 1.1680001
-0.028484156 0.36398983 1.1700001
-0.02548443 0.36461201 1.1720001
-0.0224743 0.36523423 1.174
-0.019453768 0.36585641 1.176
-0.016422832 0.36647865 1.1780001
-0.01338149 0.36710083 1.1800001
-0.010321005 0.36741197 1.1810001
-0.0072553186 0.36772305 1.182
-0.00418443 0.36803415 1.1830001
-0.0011083391 0.36834523 1.184
0.001972954 0.36865634 1.1850001
0.0050594495 0.36896747 1.1860001
0.0081511457 0.36927855 1.187
0.011238577 0.36927855 1.187
0.014326008 0.36927855 1.187
0.017398771 0.36896747 1.1860001
0.020483602 0.36896747 1.1860001
0.023548558 0.36865634 1.1850001
0.026608313 0.36834523 1.184
0.029637791 0.36772305 1.182
0.032656867 0.36710083 1.1800001
0.035665538 0.36647865 1.1780001
0.038630929 0.36554533 1.1750001
0.041651666 0.36523423 1.174
0.044591047 0.36430091 1.171
0.047596183 0.36398983 1.1700001
0.050552834 0.36336762 1.1680001
0.05349908 0.3627454 1.166
0.056531884 0.3627454 1.166
0.059615783 0.36305651 1.1670001
0.062758565 0.36367869 1.169
0.065911748 0.36430091 1.171
0.069075339 0.36492312 1.1730001
0.072249338 0.36554533 1.1750001
0.075433731 0.36616752 1.177
0.07862854 0.36678973 1.179
0.081764452 0.36710083 1.1800001
0.084905572 0.36741197 1.1810001
0.087977394 0.36741197 1.1810001
0.090972126 0.36710083 1.1800001
0.094200738 0.36772305 1.182
0.097357459 0.36803415 1.1830001
0.1002647 0.36741197 1.1810001
0.10342401 0.36772305 1.182
0.10649844 0.36772305 1.182
0.10966557 0.36803415 1.1830001
0.1128379 0.36834523 1.184
0.11650494 0.37021187 1.1900001
0.24419267 0.49807495 1.6010001
0.22859733 0.42963243 1.381
0.22462344 0.41563281 1.3360001
0.21819596 0.39758888 1.2780001
0.21528009 0.3863892 1.2420001
0.21833463 0.38607809 1.2410001
0.22299081 0.38856691 1.2490001
0.23466301 0.3863892 1.2420001
0.23521192 0.38203374 1.228
0.24151227 0.38701141 1.2440001
0.25097775 0.38172266 1.2270001
0.25375491 0.38110045 1.225
0.2565217 0.38047823 1.223
0.26097685 0.38234487 1.2290001
0.26374364 0.38172266 1.2270001
0.26432449 0.37798941 1.215
0.26616386 0.37612283 1.2090001
0.26819474 0.3745673 1.2040001
0.27065033 0.37363401 1.2010001
0.2730903 0.37270069 1.1980001
0.27597579 0.37238955 1.197
0.27932239 0.37270069 1.1980001
0.28338146 0.37394509 1.202
0.28197908 0.36803415 1.1830001
0.28505611 0.36803415 1.1830001
0.28910738 0.36927855 1.187
0.29194868 0.36896747 1.1860001
0.29478472 0.36865634 1.1850001
0.29761556 0.36834523 1.184
0.30018726 0.36772305 1.182
0.30249202 0.36678973 1.179
0.30529946 0.36647865 1.1780001
0.30757818 0.36554533 1.1750001
0.30957693 0.36430091 1.171
0.31182182 0.36336762 1.1680001
0.31405112 0.3624343 1.1650001
0.31626478 0.36150101 1.1620001
0.31846288 0.36056769 1.159
0.32064536 0.35963437 1.156
0.32309219 0.35901219 1.154
0.32552865 0.35838997 1.1520001
0.32852504 0.35838997 1.1520001
0.33152142 0.35838997 1.1520001
0.33451784 0.35838997 1.1520001
0.33780721 0.35870105 1.153
0.34110177 0.35901219 1.154
0.3444016 0.35932329 1.1550001
0.34770653 0.35963437 1.156
0.35101673 0.35994548 1.1570001
0.35463813 0.36056769 1.159
0.3579613 0.3608788 1.1600001
0.36128968 0.36118987 1.161
0.36430949 0.36118987 1.161
0.36796209 0.36181211 1.1630001
0.37130606 0.36212319 1.164
0.37433368 0.36212319 1.164
0.37800968 0.3627454 1.166
0.38169608 0.36336762 1.1680001
0.3853929 0.36398983 1.1700001
0.38976407 0.36523423 1.174
0.3941561 0.36647865 1.1780001
0.39890611 0.36803415 1.1830001
0.40334234 0.36927855 1.187
0.40882653 0.37145627 1.194
0.42124724 0.37985605 1.2210001
0.42685634 0.38203374 1.228
0.43565369 0.38701141 1.2440001
0.44277021 0.39043355 1.2550001
0.44852239 0.39261124 1.2620001
0.45359492 0.39416677 1.2670001
0.46013588 0.39696667 1.276
0.46490768 0.39821109 1.2800001
0.46933442 0.39914441 1.2830001
0.47340837 0.39976659 1.2850001
0.47749275 0.40038881 1.2870001
0.4812139 0.40069991 1.2880001
0.48456401 0.40069991 1.2880001
0.48753536 0.40038881 1.2870001
0.49088287 0.40038881 1.2870001
0.49423039 0.40038881 1.2870001
0.49719131 0.40007767 1.286
0.49897939 0.39883327 1.2820001
0.99060845 0.76126754 2.447
0.99697316 0.76126754 2.447
0.99964774 0.75846767 2.4380002
1.0022755 0.75566775 2.4290001
1.0040258 0.75224566 2.4180002
1.0082259 0.7506901 2.4130001
1.0107183 0.74789017 2.404
1.0157021 0.74695683 2.401
1.010455 0.7385571 2.3740001
1.0140605 0.73669046 2.368
0.99652386 0.71957988 2.3130002
0.99993938 0.71771324 2.3070002
0.98937058 0.70589131 2.2690001
0.99044728 0.70246923 2.2580001
0.98573071 0.69500279 2.2340002
0.9942044 0.69686937 2.24
0.97770864 0.68131423 2.1900001
0.98205775 0.68038094 2.187
0.97329372 0.67042571 2.1550002
0.97753614 0.66949242 2.1520002
0.97947872 0.66700351 2.1440001
0.97724479 0.66171479 2.1270001
0.97954285 0.65953708 2.1200001
0.97622871 0.65362614 2.1010001
0.96533972 0.64273751 2.066
0.96695465 0.64024878 2.0580001
0.96002382 0.63216007 2.0320001
0.96340889 0.6309157 2.0280001
0.96963918 0.63153791 2.0300002
0.97443897 0.63122678 2.029
0.97730219 0.62967128 2.0240002
0.98208123 0.62936014 2.023
0.98734307 0.62936014 2.023
0.9896611 0.62749356 2.0170002
0.99638712 0.62842685 2.02
1.0011454 0.62811571 2.0190001
1.0073938 0.62873799 2.0210001
1.0121495 0.62842685 2.02
1.0189145 0.62936014 2.023
1.0175949 0.62531579 2.01
1.0243496 0.62624913 2.013
1.0254937 0.62376034 2.0050001
-1.7206239 1.0254965 3.2690001
-1.7273095 1.0345939 3.2980001
-1.7458308 1.0509065 3.3500001
-1.756822 1.0628272 3.3880002
-1.7588445 1.069415 3.4090002
-1.7746179 1.0844728 3.4570003
-1.7692014 1.0866687 3.4640002
-1.7820411 1.100158 3.5070002
-1.7724138 1.0998442 3.5060003
-1.7814002 1.1111375 3.5420001
-1.7711867 1.1105101 3.5400002
-1.7624767 1.1108239 3.5410001
-1.7532665 1.1108239 3.5410001
-1.7425786 1.1098827 3.5380001
-1.7319064 1.1089416 3.5350001
-1.6866493 1.0857276 3.4610002
-1.6795861 1.0869824 3.4650002
-1.6377888 1.0656506 3.3970001
-1.6073743 1.0515339 3.3520002
-1.6019942 1.0537299 3.3590002
-1.5671694 1.0364761 3.3040001
-1.5397066 1.023928 3.2640002
-1.5307477 1.0236143 3.2630002
-1.5110639 1.0160854 3.2390001
-1.5031031 1.0163991 3.2400002
-1.4951371 1.0167128 3.2410002
-1.5023036 1.0273787 3.2750001
-1.4946973 1.0280062 3.2770002
-1.5093031 1.044005 3.3280001
-1.5029016 1.0455736 3.3330002
-1.4987153 1.0487106 3.3430002
-1.5167629 1.0675328 3.4030001
-1.5070254 1.0669054 3.4010003
-1.4977386 1.0665916 3.4000001
-1.4832023 1.0625135 3.3870001
-1.4582862 1.0509065 3.3500001
-1.4521689 1.0527887 3.3560002
-1.4318269 1.0443188 3.3290002
-1.4227406 1.044005 3.3280001
-1.3932639 1.0286335 3.279
-1.3661538 1.0148306 3.2350001
-1.3531228 1.0113798 3.2240002
-1.3326411 1.0022825 3.1950002
-1.3185277 0.99789065 3.1810002
-1.3098419 0.99757689 3.1800001
-1.2843801 0.9844014 3.1380002
-1.2758112 0.98408765 3.1370001
-1.2668437 0.98346031 3.1350002
-1.2578864 0.98283285 3.1330001
-1.2501361 0.98314655 3.1340001
-1.2431735 0.98408765 3.1370001
-1.2361951 0.98502874 3.1400001
-1.2299833 0.9865973 3.1450002
-1.2229686 0.98753846 3.1480002
-1.21671 0.98910689 3.1530001
-1.2207741 0.99914545 3.1850002
-1.2132511 0.99977279 3.187
-1.2060959 1.0007139 3.1900001
-1.2094386 1.0104388 3.2210002
-1.2014335 1.0107524 3.2220001
-1.1945342 1.0120072 3.2260001
-1.197909 1.0220457 3.2580001
-1.1890697 1.0217321 3.2570002
-1.1820482 1.0229869 3.2610002
-1.1746458 1.023928 3.2640002
-1.1672279 1.0248691 3.2670002
-1.1594396 1.0254965 3.2690001
-1.1576263 1.0314568 3.2880001
-1.1487246 1.0311432 3.2870002
-1.1412157 1.0320843 3.2900002
-1.1354123 1.0345939 3.2980001
-1.1278591 1.035535 3.3010001
-1.1196122 1.0358487 3.302
-1.1113601 1.0361625 3.3030002
-1.1027688 1.0361625 3.3030002
-1.093515 1.035535 3.3010001
-1.0849291 1.035535 3.3010001
-1.0760169 1.0352213 3.3000002
-1.0632285 1.0311432 3.2870002
-1.0546789 1.0311432 3.2870002
-1.0461292 1.0311432 3.2870002
-1.037264 1.0308295 3.2860003
-1.0318476 1.0339665 3.2960002
-1.0245163 1.0352213 3.3000002
-1.0119308 1.0311432 3.2870002
-1.0030761 1.0308295 3.2860003
-0.99452895 1.0308295 3.2860003
-0.98568189 1.0305158 3.2850001
-0.97684008 1.030202 3.2840002
-0.96888793 1.0308295 3.2860003
-0.96034092 1.0308295 3.2860003
-0.95121461 1.030202 3.2840002
-0.94238573 1.0298884 3.2830002
-0.93384653 1.0298884 3.2830002
-0.9255892 1.030202 3.2840002
-0.91788518 1.0311432 3.2870002
-0.9098888 1.0317706 3.2890003
-0.90188211 1.032398 3.2910001
-0.89277929 1.0317706 3.2890003
-0.88718164 1.0352213 3.3000002
-0.87886447 1.035535 3.3010001
-0.8708058 1.0361625 3.3030002
-0.86273652 1.0367898 3.3050001
-0.85569078 1.0386721 3.3110001
-0.84989303 1.0421228 3.3220003
-0.84302497 1.0443188 3.3290002
-0.83461678 1.0446324 3.3300002
-0.82669938 1.0455736 3.3330002
-0.81827557 1.0458872 3.3340001
-0.80984658 1.046201 3.3350003
-0.8006916 1.0455736 3.3330002
-0.79820079 1.0537299 3.3590002
-0.79345942 1.0590628 3.3760002
-0.7851432 1.0596902 3.3780003
-0.77635688 1.0596902 3.3780003
-0.76802498 1.0603176 3.3800001
-0.76080585 1.0625135 3.3870001
-0.75199616 1.0625135 3.3870001
-0.74252814 1.0615724 3.3840001
-0.73329264 1.060945 3.3820002
-0.72406745 1.0603176 3.3800001
-0.71442944 1.0590628 3.3760002
-0.70397627 1.0565532 3.3680003
-0.69439024 1.0552983 3.3640001
-0.68502891 1.0543572 3.3610001
-0.6756832 1.0534161 3.3580003
-0.66496271 1.050279 3.348
-0.65625447 1.050279 3.348
-0.65392882 1.0606313 3.381
-0.64570713 1.0615724 3.3840001
-0.63765812 1.0628272 3.3880002
-0.62903142 1.063141 3.3890002
-0.62058252 1.0637684 3.3910003
-0.61464888 1.0687876 3.4070001
-0.60774302 1.0722383 3.4180002
-0.59937829 1.0731795 3.4210002
-0.59082538 1.0738069 3.4230001
-0.581752 1.0734931 3.4220002
-0.57301867 1.0738069 3.4230001
-0.56395054 1.0734931 3.4220002
-0.55504978 1.0734931 3.4220002
-0.54678744 1.0747479 3.4260001
-0.5317533 1.0625135 3.3870001
-0.52278924 1.0621998 3.3860002
-0.51352674 1.0612587 3.3830001
-0.50457823 1.060945 3.3820002
-0.49270299 1.0543572 3.3610001
-0.483385 1.0531024 3.3570001
-0.47592583 1.0559257 3.3660002
-0.46744829 1.0565532 3.3680003
-0.45868805 1.0565532 3.3680003
-0.44966054 1.0559257 3.3660002
-0.44863373 1.0744343 3.4250002
-0.43959683 1.0741206 3.4240003
-0.43534493 1.0857276 3.4610002
-0.4265891 1.086355 3.4630001
-0.4178229 1.0869824 3.4650002
-0.41329366 1.0989032 3.5030003
-0.40418223 1.0989032 3.5030003
-0.39540914 1.0998442 3.5060003
-0.3895953 1.1092553 3.5360003
-0.38018283 1.1086279 3.5340002
-0.37109575 1.1089416 3.5350001
-0.36220822 1.1098827 3.5380001
-0.3533051 1.1108239 3.5410001
-0.34448349 1.1120787 3.5450001
-0.33564112 1.1133335 3.5490003
-0.32650203 1.1136472 3.5500002
-0.31744707 1.1142746 3.5520003
-0.3082082 1.1142746 3.5520003
-0.30073687 1.1208624 3.5730002
-0.29144338 1.1208624 3.5730002
-0.28214985 1.1208624 3.5730002
-0.040413763 0.36483711 1.1630001
-0.037517346 0.36609191 1.1670001
-0.034511488 0.36640564 1.1680001
-0.03152737 0.36703303 1.1700001
-0.028532848 0.36766043 1.1720001
-0.025527917 0.36828783 1.174
-0.022493444 0.36860153 1.1750001
-0.01947031 0.36922893 1.177
-0.016450714 0.37017006 1.1800001
-0.013404171 0.37079746 1.182
-0.010338483 0.37111118 1.1830001
-0.0072675948 0.37142485 1.184
-0.0041915043 0.37173858 1.1850001
-0.0011102112 0.37205228 1.1860001
0.0019762837 0.37236598 1.187
0.0050637149 0.37236598 1.187
0.0081580132 0.37267968 1.1880001
0.011248045 0.37267968 1.1880001
0.014338078 0.37267968 1.1880001
0.017398771 0.37205228 1.1860001
0.020483602 0.37205228 1.1860001
0.023548558 0.37173858 1.1850001
0.026585842 0.37111118 1.1830001
0.02961272 0.37048379 1.1810001
0.032629192 0.36985633 1.179
0.035604984 0.36891523 1.176
0.038532298 0.36766043 1.1720001
0.041580711 0.36766043 1.1720001
0.044514891 0.36671931 1.169
0.047514822 0.36640564 1.1680001
0.05050955 0.36609191 1.1670001
0.0534532 0.36546451 1.1650001
0.056483407 0.36546451 1.1650001
0.059513617 0.36546451 1.1650001
0.080625005 0.3946389 1.258
0.083763734 0.3940115 1.256
0.089794286 0.3918156 1.2490001
0.090817936 0.36954266 1.1780001
0.1000949 0.36985633 1.179
0.10316151 0.36985633 1.179
0.10622814 0.36985633 1.179
0.10938746 0.37017006 1.1800001
0.11245669 0.37017006 1.1800001
0.27042496 0.37644413 1.2
0.27468598 0.37801263 1.205
0.27620634 0.3758167 1.1980001
0.28837669 0.37142485 1.184
0.29219481 0.37236598 1.187
0.29528224 0.37236598 1.187
0.29811832 0.37205228 1.1860001
0.30069518 0.37142485 1.184
0.30326173 0.37079746 1.182
0.30555862 0.36985633 1.179
0.30783993 0.36891523 1.176
0.31010568 0.36797413 1.1730001
0.31208879 0.36671931 1.169
0.31432065 0.36577818 1.166
0.31626478 0.36452338 1.1620001
0.31846288 0.36358228 1.159
0.32064536 0.36264116 1.156
0.32309219 0.36201376 1.154
0.32581121 0.36170003 1.153
0.32852504 0.36138636 1.1520001
0.33152142 0.36138636 1.1520001
0.3348082 0.36170003 1.153
0.33810019 0.36201376 1.154
0.34139737 0.36232749 1.1550001
0.34469974 0.36264116 1.156
0.34830815 0.36326858 1.1580001
0.35162351 0.36358228 1.159
0.35494411 0.36389598 1.1600001
0.35826987 0.36420968 1.161
0.36160088 0.36452338 1.1620001
0.3649371 0.36483711 1.1630001
0.36827847 0.36515078 1.164
0.37130606 0.36515078 1.164
0.37465531 0.36546451 1.1650001
0.37768549 0.36546451 1.1650001
0.38136926 0.36609191 1.1670001
0.3853929 0.36703303 1.1700001
0.38976407 0.36828783 1.174
0.3941561 0.36954266 1.1780001
0.39856887 0.37079746 1.182
0.40096375 0.37017006 1.1800001
0.40916896 0.37487561 1.1950001
0.41710722 0.37926745 1.2090001
0.42685634 0.3852278 1.228
0.43705449 0.39150187 1.248
0.44347581 0.39432523 1.2570001
0.4495886 0.39683485 1.2650001
0.45466894 0.39840338 1.2700001
0.4597753 0.3999719 1.2750001
0.46454445 0.4012267 1.279
0.47006604 0.40310892 1.2850001
0.47156632 0.4015404 1.2800001
0.47563767 0.4021678 1.2820001
0.4819611 0.40467742 1.2900001
0.48531643 0.40467742 1.2900001
0.48867181 0.40467742 1.2900001
0.49164569 0.40436372 1.289
0.49461442 0.40405002 1.2880001
0.49835119 0.40436372 1.289
0.50248235 0.40499112 1.291
0.97967821 0.75916231 2.4200001
0.9859727 0.75916231 2.4200001
0.98783338 0.75100601 2.3940001
0.98949271 0.74755532 2.3830001
0.99694449 0.74849641 2.3860002
1.0090367 0.75288826 2.4000001
1.0025882 0.74347717 2.3700001
1.0100294 0.74441826 2.3730001
1.0016419 0.73375237 2.3390002
0.99609298 0.72528231 2.312
0.98433566 0.71242052 2.2710001
0.98806244 0.71085197 2.266
0.99000871 0.70802867 2.2570002
0.98484814 0.70018607 2.2320001
0.97556317 0.68952018 2.1980002
0.97770864 0.68701053 2.1900001
0.98115969 0.68544203 2.1850002
0.97193873 0.67508984 2.1520002
0.97662765 0.67446238 2.1500001
0.97399664 0.66881573 2.1320002
0.97770423 0.66756088 2.128
0.97261208 0.66034567 2.105
0.97344077 0.65720868 2.095
0.96487248 0.64779758 2.0650001
0.96460545 0.64403319 2.0530002
0.96002382 0.63744539 2.0320001
0.96388394 0.63650423 2.029
0.96820623 0.63587689 2.0270002
0.97587973 0.63744539 2.0320001
0.97923362 0.63619059 2.0280001
0.98450857 0.63619059 2.0280001
0.99222368 0.63775903 2.033
0.9930957 0.6349358 2.0240002
1.0067457 0.64026874 2.0410001
1.0165172 0.6430921 2.0500002
1.0243415 0.64466053 2.0550001
1.0311899 0.64560169 2.0580001
1.0355355 0.64497423 2.056
1.0429083 0.64622909 2.0600002
1.0503019 0.64748389 2.0640001
1.0275396 0.63023019 2.0090001
-1.7206239 1.0339992 3.2690001
-1.7304519 1.0450699 3.3040001
-1.7447884 1.0589873 3.348
-1.7557849 1.0710069 3.3860002
-1.7598764 1.0789145 3.4110003
-1.7540842 1.0808123 3.4170001
-1.7702228 1.0963112 3.4660001
-1.7647643 1.0985254 3.473
-1.7729193 1.1092798 3.5070002
-1.7658092 1.1105449 3.5110002
-1.756677 1.1105449 3.5110002
-1.7450562 1.1089635 3.5060003
-1.7359369 1.1089635 3.5060003
-1.7258326 1.1083308 3.5040002
-1.7172085 1.1086471 3.5050001
-1.6851873 1.0937809 3.4580002
-1.6480786 1.0754352 3.4000001
-1.6257356 1.0665786 3.3720002
-1.6064152 1.0596199 3.3500001
-1.5714709 1.0422232 3.2950001
-1.5472476 1.0317851 3.2620001
-1.5397066 1.0324178 3.2640002
-1.509168 1.0175514 3.2170002
-1.5012671 1.0178678 3.2180002
-1.4928968 1.0178678 3.2180002
-1.484988 1.0181841 3.2190001
-1.4770741 1.0185004 3.2200003
-1.4946973 1.0365298 3.2770002
-1.4861737 1.0365298 3.2770002
-1.4898249 1.0450699 3.3040001
-1.499612 1.0580385 3.3450003
-1.4904658 1.0577221 3.3440001
-1.4813248 1.0574058 3.3430002
-1.4721891 1.0570896 3.3420002
-1.4634964 1.0570896 3.3420002
-1.4578509 1.0593036 3.3490002
-1.4374568 1.0507635 3.3220003
-1.412042 1.0384276 3.2830002
-1.4026479 1.0377949 3.2810001
-1.3762677 1.0245101 3.2390001
-1.3661538 1.023245 3.2350001
-1.3539621 1.0203981 3.2260001
-1.3309727 1.0093275 3.1910002
-1.3168696 1.0048993 3.177
-1.2974849 0.99635905 3.1500001
-1.2839707 0.99224705 3.1370001
-1.2754046 0.99193078 3.1360002
-1.2664396 0.99129814 3.1340001
-1.2566819 0.99003297 3.1300001
-1.2489395 0.99034923 3.131
-1.2419846 0.99129814 3.1340001
-1.2354078 0.99256343 3.1380002
-1.2288101 0.99382865 3.1420002
-1.2218031 0.99477756 3.1450002
-1.21671 0.99730796 3.1530001
-1.2196242 1.0064808 3.1820002
-1.2121091 1.0071135 3.1840003
-1.2049617 1.0080622 3.187
-1.2090632 1.0185004 3.2200003
-1.2010607 1.0188167 3.2210002
-1.1937937 1.0197656 3.2240002
-1.1854079 1.0197656 3.2240002
-1.1890697 1.0302037 3.2570002
-1.1820482 1.0314689 3.2610002
-1.1742859 1.0321015 3.2630002
-1.1668706 1.0330504 3.2660003
-1.1583756 1.0330504 3.2660003
-1.1537535 1.0365298 3.2770002
-1.149773 1.0406417 3.2900002
-1.1422563 1.0415906 3.2930002
-1.1350682 1.0428559 3.2970002
-1.1275175 1.0438048 3.3000002
-1.118934 1.0438048 3.3000002
-1.1103507 1.0438048 3.3000002
-1.1017672 1.0438048 3.3000002
-1.09219 1.0428559 3.2970002
-1.0793418 1.0387439 3.2840002
-1.0707998 1.0387439 3.2840002
-1.0619347 1.0384276 3.2830002
-1.0530746 1.0381112 3.2820001
-1.0445379 1.0381112 3.2820001
-1.0360013 1.0381112 3.2820001
-1.0271517 1.0377949 3.2810001
-1.0186176 1.0377949 3.2810001
-1.0100837 1.0377949 3.2810001
-1.0012444 1.0374787 3.2800002
-0.99271297 1.0374787 3.2800002
-0.98418164 1.0374787 3.2800002
-0.97565025 1.0374787 3.2800002
-0.96800333 1.0384276 3.2830002
-0.95975643 1.0387439 3.2840002
-0.95092499 1.0384276 3.2830002
-0.94238573 1.0384276 3.2830002
-0.93384653 1.0384276 3.2830002
-0.9255892 1.0387439 3.2840002
-0.91732669 1.0390601 3.2850001
-0.90905887 1.0393765 3.2860003
-0.90051192 1.0393765 3.2860003
-0.89033628 1.0374787 3.2800002
-0.88153589 1.0371623 3.279
-0.87274092 1.036846 3.2780001
-0.86368752 1.0362134 3.2760003
-0.85490537 1.0358971 3.2750001
-0.84638697 1.0358971 3.2750001
-0.83838034 1.0365298 3.2770002
-0.83036309 1.0371623 3.279
-0.8223356 1.0377949 3.2810001
-0.81652993 1.0412743 3.2920001
-0.80821282 1.0415906 3.2930002
-0.79964763 1.0415906 3.2930002
-0.80093187 1.0545591 3.3340001
-0.79178476 1.0539265 3.3320003
-0.78452826 1.0558243 3.3380001
-0.77700818 1.0574058 3.3430002
-0.76992166 1.0596199 3.3500001
-0.76188987 1.0605688 3.3530002
-0.75339323 1.0608852 3.3540001
-0.74466932 1.0608852 3.3540001
-0.73572606 1.0605688 3.3530002
-0.7263543 1.0596199 3.3500001
-0.71699816 1.058671 3.3470001
-0.70765764 1.0577221 3.3440001
-0.69812369 1.0564569 3.3400002
-0.68881696 1.055508 3.3370001
-0.6797297 1.0548754 3.3350003
-0.67105526 1.0548754 3.3350003
-0.6639697 1.0574058 3.3430002
-0.65547043 1.0577221 3.3440001
-0.64677256 1.0577221 3.3440001
-0.63883793 1.0589873 3.348
-0.63069433 1.0599362 3.3510001
-0.62866014 1.0713232 3.3870001
-0.6200335 1.0716395 3.3880002
-0.60887587 1.0675275 3.3750002
-0.60774302 1.0811287 3.4180002
-0.59937829 1.0820776 3.4210002
-0.59065276 1.0823939 3.4220002
-0.58158201 1.0820776 3.4210002
-0.56715959 1.0716395 3.3880002
-0.55785286 1.0706906 3.3850002
-0.54969716 1.0719558 3.3890002
-0.54056305 1.0713232 3.3870001
-0.53159636 1.0710069 3.3860002
-0.5226348 1.0706906 3.3850002
-0.50973183 1.0621504 3.3580003
-0.50129592 1.062783 3.3600001
-0.49270299 1.0630993 3.3610001
-0.48396096 1.0630993 3.3610001
-0.47620863 1.0653135 3.3680003
-0.46772587 1.065946 3.3700001
-0.45882422 1.0656297 3.3690002
-0.45780945 1.0839753 3.427
-0.44889569 1.0839753 3.427
-0.43959683 1.0830265 3.4240003
-0.43521914 1.0944135 3.4600003
-0.42646593 1.095046 3.4620001
-0.4178229 1.0959949 3.4650002
-0.41341165 1.1083308 3.5040002
-0.40441296 1.1086471 3.5050001
-0.39563468 1.109596 3.5080001
-0.38673061 1.1102287 3.5100002
-0.37975252 1.1165547 3.5300002
-0.37088582 1.1175036 3.5330002
-0.36200348 1.1184525 3.5360003
-0.35320532 1.1197178 3.5400002
-0.34438631 1.120983 3.5440001
-0.33564112 1.1225646 3.5490003
-0.32650203 1.1228808 3.5500002
-0.31744707 1.1235135 3.5520003
-0.3082082 1.1235135 3.5520003
-0.30073687 1.1301558 3.5730002
-0.29144338 1.1301558 3.5730002
-0.28214985 1.1301558 3.5730002
-0.27446002 1.1367983 3.5940001
-0.26511189 1.1367983 3.5940001
-0.25725821 1.1434406 3.6150002
-0.24929529 1.1500831 3.6360002
-0.037549499 0.36944363 1.1680001
-0.034541033 0.36975992 1.169
-0.031554315 0.3703925 1.171
-0.028557194 0.37102515 1.1730001
-0.025549663 0.37165776 1.1750001
-0.022512587 0.37197402 1.176
-0.019486854 0.37260666 1.1780001
-0.016464656 0.3735556 1.1810001
-0.013415512 0.37418818 1.1830001
-0.010347222 0.37450448 1.184
-0.0072798715 0.37513712 1.1860001
-0.0041985787 0.37545338 1.187
-0.0011120834 0.3757697 1.1880001
0.0019796137 0.376086 1.189
0.0050722468 0.376086 1.189
0.0081648799 0.376086 1.189
0.011257512 0.376086 1.189
0.014350146 0.376086 1.189
0.017413439 0.37545338 1.187
0.02050087 0.37545338 1.187
0.023548558 0.3748208 1.1850001
0.027709501 0.39000338 1.233
0.030941656 0.39031971 1.2340001
0.034206685 0.39095232 1.2360001
0.038466543 0.37007624 1.1700001
0.044476811 0.36944363 1.1680001
0.047474138 0.3691273 1.1670001
0.087530427 0.37165776 1.1750001
0.090740837 0.37229034 1.177
0.093642868 0.37165776 1.1750001
0.096699081 0.37165776 1.1750001
0.10001001 0.37260666 1.1780001
0.10298652 0.37229034 1.177
0.10604794 0.37229034 1.177
0.10920206 0.37260666 1.1780001
0.11226609 0.37260666 1.1780001
0.26927343 0.61046761 1.9300001
0.27344072 0.6085698 1.9240001
0.27772152 0.60698825 1.9190001
0.28197625 0.6054067 1.914
0.28560534 0.60255998 1.9050001
0.28659463 0.59433609 1.8790001
0.29117176 0.59370345 1.8770001
0.29573846 0.59307086 1.8750001
0.29404193 0.58010238 1.8340001
0.2904149 0.40297189 1.274
0.30529678 0.40075776 1.2670001
0.30810517 0.40012515 1.2650001
0.31090316 0.39949253 1.263
0.31344199 0.39854363 1.2600001
0.31621656 0.39791101 1.258
0.31212366 0.38873819 1.2290001
0.31506377 0.38842186 1.228
0.30581781 0.37323928 1.1800001
0.30810171 0.37229034 1.177
0.31010568 0.37102515 1.1730001
0.31208879 0.36975992 1.169
0.31432065 0.36881098 1.166
0.31626478 0.36754578 1.1620001
0.31846288 0.36659688 1.159
0.32064536 0.36564794 1.156
0.32309219 0.36501536 1.154
0.32552865 0.36438274 1.1520001
0.32852504 0.36438274 1.1520001
0.33152142 0.36438274 1.1520001
0.3348082 0.36469904 1.153
0.33839318 0.36533165 1.1550001
0.34169292 0.36564794 1.156
0.34499794 0.36596426 1.1570001
0.34830815 0.36628059 1.1580001
0.35192689 0.36691317 1.1600001
0.35555607 0.36754578 1.1620001
0.35888708 0.36786211 1.1630001
0.36191207 0.36786211 1.1630001
0.36525086 0.3681784 1.164
0.36859488 0.36849472 1.1650001
0.37194404 0.36881098 1.166
0.37465531 0.36849472 1.1650001
0.37574032 0.36659688 1.159
0.38136926 0.3691273 1.1670001
0.3850635 0.36975992 1.169
0.38710809 0.36881098 1.166
0.39147931 0.37007624 1.1700001
0.39823171 0.3735556 1.1810001
0.40028414 0.37260666 1.1780001
0.40985376 0.37861642 1.197
0.41745222 0.3827284 1.21
0.42824677 0.38968712 1.2320001
0.43740469 0.39506426 1.2490001
0.44382861 0.39791101 1.258
0.4495886 0.40012515 1.2650001
0.45502692 0.40202296 1.271
0.4597753 0.40328819 1.2750001
0.46490768 0.40486971 1.2800001
0.46970022 0.40613493 1.284
0.47377676 0.40676752 1.286
0.47786376 0.40740016 1.2880001
0.4797194 0.40613493 1.284
0.48343536 0.40645123 1.2850001
0.4890506 0.40834904 1.291
0.49202713 0.40803277 1.2900001
0.49499843 0.40771645 1.289
0.49873781 0.40803277 1.2900001
0.50326079 0.40898168 1.2930001
0.50779933 0.40993056 1.296
0.97036719 0.75818175 2.3970001
0.97619444 0.75786549 2.3960001
0.98160642 0.75723284 2.3940001
0.9874208 0.75691658 2.3930001
0.99281454 0.75628394 2.391
0.99819797 0.75565135 2.3890002
0.99348068 0.74742746 2.3630002
0.99878079 0.74679482 2.3610001
0.99300414 0.73793834 2.3330002
0.9973594 0.73667306 2.329
0.99006128 0.72686768 2.2980001
0.98216844 0.71674591 2.266
0.98501021 0.71453178 2.2590001
0.98956996 0.71358281 2.256
0.98043579 0.70282853 2.2220001
0.97556317 0.69523722 2.1980002
0.9772622 0.6923905 2.1890001
0.97981256 0.69017637 2.1820002
0.97193873 0.68068725 2.1520002
0.9761734 0.67973828 2.1490002
0.97353971 0.67404479 2.131
0.97770423 0.67309588 2.128
0.97076392 0.66455567 2.1010001
0.97344077 0.6626578 2.095
0.9644053 0.65285242 2.0640001
0.9608466 0.6468426 2.0450001
0.96049619 0.64304692 2.033
0.96483409 0.64241439 2.0310001
0.96916145 0.64178175 2.029
0.97587973 0.64273065 2.0320001
0.97971642 0.64178175 2.029
0.98596495 0.64241439 2.0310001
0.99515206 0.64494479 2.039
0.9950583 0.64146543 2.0280001
1.0023062 0.64273065 2.0320001
1.0304012 0.65728068 2.0780001
1.0363046 0.65759695 2.079
1.0422133 0.65791333 2.0800002
1.0451051 0.65633172 2.075
1.0449333 0.65285242 2.0640001
1.0492841 0.65221977 2.062
1.0592506 0.65506655 2.0710001
-1.7190449 1.0415455 3.2660003
-1.7304519 1.0536638 3.3040001
-1.7447884 1.0676956 3.348
-1.7371173 1.0683335 3.3500001
-1.7603923 1.0881057 3.4120002
-1.7540842 1.0897001 3.4170001
-1.748261 1.0916135 3.4230001
-1.7657807 1.1081966 3.4750001
-1.7602808 1.110429 3.4820001
-1.7532358 1.1117046 3.4860001
-1.74617 1.1129802 3.4900002
-1.7430651 1.1168071 3.5020001
-1.7344515 1.1171261 3.5030003
-1.7248474 1.1168071 3.5020001
-1.6897724 1.0999051 3.4490001
-1.6837252 1.1018186 3.4550002
-1.647594 1.0839598 3.3990002
-1.6252534 1.0750304 3.3710001
-1.5929885 1.0594041 3.3220003
-1.57004 1.0498369 3.2920001
-1.5467734 1.0399508 3.2610002
-1.5161204 1.0249623 3.2140002
-1.5086988 1.0256001 3.2160001
-1.4858718 1.015714 3.1850002
-1.4771236 1.0153952 3.1840003
-1.4693031 1.015714 3.1850002
-1.4766153 1.0265568 3.2190001
-1.4682425 1.0265568 3.2190001
-1.4861737 1.0450534 3.2770002
-1.4776503 1.0450534 3.2770002
-1.4803344 1.053026 3.302
-1.4730829 1.0539827 3.3050001
-1.4839835 1.0680146 3.3490002
-1.4748321 1.0676956 3.348
-1.4656858 1.0673767 3.3470001
-1.4339088 1.0504748 3.2940001
-1.4240428 1.0495181 3.2910001
-1.4124721 1.0472857 3.2840002
-1.4030753 1.0466479 3.2820001
-1.3758428 1.032616 3.2380002
-1.3661538 1.0316594 3.2350001
-1.3392726 1.0176275 3.1910002
-1.3309727 1.0176275 3.1910002
-1.3139682 1.0109304 3.1700001
-1.2991325 1.005828 3.154
-1.2827429 0.99944985 3.1340001
-1.2745912 0.99944985 3.1340001
-1.2656314 0.99881208 3.1320002
-1.2546746 0.99657977 3.1250002
-1.2473439 0.99721754 3.1270001
-1.2403994 0.99817425 3.1300001
-1.233833 0.99944985 3.1340001
-1.2272457 1.0007255 3.1380002
-1.2202491 1.0016822 3.141
-1.2170957 1.005828 3.154
-1.2177076 1.0131629 3.177
-1.2105863 1.0141195 3.1800001
-1.2038274 1.0153952 3.1840003
-1.2086877 1.0265568 3.2190001
-1.2006879 1.0268759 3.2200003
-1.193053 1.0275136 3.2220001
-1.1854079 1.0281514 3.2240002
-1.1781174 1.0291082 3.2270002
-1.1704488 1.0297459 3.2290001
-1.1775248 1.0434588 3.2720001
-1.1690142 1.0434588 3.2720001
-1.1597943 1.042821 3.2700002
-1.1530493 1.0444156 3.2750001
-1.1480256 1.0476046 3.2850001
-1.1311562 1.0399508 3.2610002
-1.1230185 1.0402697 3.2620001
-1.1165839 1.0421833 3.2680001
-1.118256 1.0517504 3.2980001
-1.1096777 1.0517504 3.2980001
-1.1010995 1.0517504 3.2980001
-1.0865585 1.0460101 3.2800002
-1.0783558 1.046329 3.2810001
-1.0698217 1.046329 3.2810001
-1.0606407 1.0456911 3.279
-1.0517911 1.0453722 3.2780001
-1.0432649 1.0453722 3.2780001
-1.0347387 1.0453722 3.2780001
-1.0262126 1.0453722 3.2780001
-1.0176862 1.0453722 3.2780001
-1.00916 1.0453722 3.2780001
-1.0012444 1.0460101 3.2800002
-0.99362099 1.0469668 3.2830002
-0.98628199 1.0482424 3.2870002
-0.97505534 1.0453722 3.2780001
-0.9674136 1.046329 3.2810001
-0.95946419 1.0469668 3.2830002
-0.95092499 1.0469668 3.2830002
-0.94238573 1.0469668 3.2830002
-0.93384653 1.0469668 3.2830002
-0.9255892 1.0472857 3.2840002
-0.91732669 1.0476046 3.2850001
-0.90905887 1.0479236 3.2860003
-0.9002378 1.0476046 3.2850001
-0.89115059 1.0469668 3.2830002
-0.88207358 1.046329 3.2810001
-0.87300712 1.0456911 3.279
-0.86368752 1.0447345 3.2760003
-0.85673261 1.0466479 3.2820001
-0.84638697 1.0444156 3.2750001
-0.83761281 1.0440967 3.2740002
-0.82884371 1.0437778 3.2730002
-0.81982929 1.0431399 3.2710001
-0.81107324 1.042821 3.2700002
-0.80723113 1.0488803 3.2890003
-0.80061895 1.0514315 3.2970002
-0.79973072 1.0616364 3.3290002
-0.79130954 1.0619553 3.3300002
-0.78452826 1.0645065 3.3380001
-0.77700818 1.0661012 3.3430002
-0.76992166 1.0683335 3.3500001
-0.76166266 1.0689713 3.3520002
-0.75316864 1.0692902 3.3530002
-0.74444735 1.0692902 3.3530002
-0.73550665 1.0689713 3.3520002
-0.72613752 1.0680146 3.3490002
-0.71699816 1.0673767 3.3470001
-0.70744598 1.0661012 3.3430002
-0.69770563 1.0645065 3.3380001
-0.68840414 1.06355 3.3350003
-0.679322 1.0629121 3.3330002
-0.67045158 1.0625932 3.3320003
-0.66297656 1.0645065 3.3380001
-0.65468639 1.0651444 3.3400002
-0.64638579 1.0657823 3.3420002
-0.63845628 1.0670578 3.3460002
-0.63031793 1.0680146 3.3490002
-0.62327754 1.0708848 3.3580003
-0.61509222 1.0718414 3.3610001
-0.60779345 1.0743927 3.3690002
-0.60365349 1.0826843 3.3950002
-0.59429735 1.0817275 3.3920002
-0.58530205 1.0814086 3.3910003
-0.57631189 1.0810897 3.3900001
-0.56682473 1.0798141 3.3860002
-0.55768806 1.0791762 3.3840001
-0.54953498 1.080452 3.3880002
-0.54008424 1.0791762 3.3840001
-0.53128231 1.0791762 3.3840001
-0.52248043 1.0791762 3.3840001
-0.50958002 1.0705658 3.3570001
-0.50114673 1.0712036 3.3590002
-0.49270299 1.0718414 3.3610001
-0.48424894 1.0724792 3.3630002
-0.47649139 1.0747116 3.3700001
-0.46800345 1.0753495 3.3720002
-0.45882422 1.0743927 3.3690002
-0.45927897 1.0963972 3.4380002
-0.45033658 1.0963972 3.4380002
-0.44486067 1.1050076 3.4650002
-0.43622541 1.1059643 3.4680002
-0.42745143 1.1066022 3.4700003
-0.41866699 1.10724 3.4720001
-0.4135296 1.1177639 3.5050001
-0.40452835 1.1180828 3.5060003
-0.39574745 1.1190394 3.5090001
-0.38684079 1.1196773 3.5110002
-0.37899947 1.1235042 3.5230002
-0.3704659 1.1254176 3.5290003
-0.36169636 1.1266932 3.5330002
-0.35300577 1.1282877 3.5380001
-0.34419197 1.1295633 3.5420001
-0.33554655 1.1314768 3.5480001
-0.32650203 1.1321146 3.5500002
-0.31735769 1.1324335 3.5510001
-0.31003037 1.1394495 3.5730002
-0.30073687 1.1394495 3.5730002
-0.29144338 1.1394495 3.5730002
