# .PCD v0.7 - Point Cloud Data file format
VERSION 0.7
FIELDS x y z
SIZE 4 4 4
TYPE F F F
COUNT 1 1 1
WIDTH 1539
HEIGHT 1
VIEWPOINT 0 0 0 1 0 0 0
POINTS 1539
DATA ascii
-0.87989241 0.51212096 2.1750002
-0.49248537 0.30633074 1.3010001
-0.49060592 0.30727258 1.3050001
-0.48795903 0.30774349 1.307
-0.48493099 0.30797896 1.3080001
-0.48116142 0.30774349 1.307
-0.47776267 0.30774349 1.307
-0.47400093 0.30750805 1.3060001
-0.46988407 0.30703712 1.304
-0.46541989 0.30633074 1.3010001
-0.46097127 0.30562437 1.2980001
-0.45689079 0.30515343 1.296
-0.45212084 0.30421162 1.2920001
-0.44806638 0.30374071 1.2900001
-0.44402236 0.3032698 1.2880001
-0.44067296 0.3032698 1.2880001
-0.43698403 0.30303434 1.2870001
-0.43397421 0.3032698 1.2880001
-0.43095914 0.30350524 1.289
-0.42827061 0.30397615 1.291
-0.42557174 0.30444708 1.2930001
-0.42318892 0.30515343 1.296
-0.42046663 0.30562437 1.2980001
-0.41805527 0.30633074 1.3010001
-0.41594699 0.30727258 1.3050001
-0.41381788 0.3082144 1.309
-0.41166809 0.30915624 1.3130001
-0.40949738 0.31009805 1.317
-0.40761429 0.31127533 1.322
-0.40570512 0.31245264 1.327
-0.4031637 0.31315902 1.33
-0.40781948 0.31951639 1.3570001
-0.40250304 0.31810364 1.3510001
-0.40282911 0.32116458 1.3640001
-0.65958899 0.54014045 2.2940001
-0.65419346 0.54061133 2.296
-0.64935213 0.5415532 2.3000002
-0.64421028 0.54225957 2.3030002
-0.63960707 0.54343683 2.3080001
-0.63497788 0.54461414 2.3130002
-0.6297788 0.54532057 2.3160002
-0.62456411 0.54602689 2.319
-0.61906707 0.54649782 2.3210001
-0.61329556 0.54673326 2.322
-0.60699582 0.54649782 2.3210001
-0.60070127 0.54626238 2.3200002
-0.59415561 0.54579145 2.3180001
-0.58736652 0.54508507 2.3150001
-0.58084428 0.54461414 2.3130002
-0.57507795 0.54484963 2.3140001
-0.56979829 0.54555601 2.3170002
-0.56206977 0.54390776 2.3100002
-0.55534059 0.54320139 2.3070002
-0.54886508 0.54273045 2.3050001
-0.28707412 0.31103989 1.3210001
-0.28385359 0.31127533 1.322
-0.28062794 0.3115108 1.3230001
-0.27718753 0.3115108 1.3230001
-0.2735402 0.31127533 1.322
-0.26989812 0.31103989 1.3210001
-0.26626119 0.31080443 1.3200001
-0.26243037 0.31033352 1.3180001
-0.25880647 0.31009805 1.317
-0.25538167 0.31009805 1.317
-0.25176558 0.30986261 1.3160001
-0.24815467 0.30962715 1.3150001
-0.24454896 0.30939168 1.314
-0.24094848 0.30915624 1.3130001
-0.23753408 0.30915624 1.3130001
-0.23394136 0.30892077 1.312
-0.23052958 0.30892077 1.312
-0.22694468 0.30868533 1.3110001
-0.22336498 0.30844986 1.3100001
-0.21979047 0.3082144 1.309
-0.2163865 0.3082144 1.309
-0.21314521 0.30844986 1.3100001
-0.20973863 0.30844986 1.3100001
-0.20633204 0.30844986 1.3100001
-0.20308034 0.30868533 1.3110001
-0.19982345 0.30892077 1.312
-0.19641167 0.30892077 1.312
-0.19299985 0.30892077 1.312
-0.31147975 0.52648389 2.2360001
-0.30662203 0.52813208 2.243
-0.30145976 0.52930939 2.2480001
-0.29653445 0.53095758 2.2550001
-0.29247501 0.53425395 2.2690001
-0.28758499 0.5361377 2.2770002
-0.28215855 0.53707951 2.2810001
-0.27659026 0.53778589 2.2840002
-0.27088779 0.53825676 2.286
-0.26517498 0.5387277 2.2880001
-0.25911185 0.53849226 2.2870002
-0.25338599 0.53896314 2.289
-0.24278541 0.52883846 2.2460001
-0.23420188 0.52271652 2.22
-0.22894338 0.52389383 2.2250001
-0.21703933 0.5095309 2.164
-0.2084811 0.50246716 2.1340001
-0.19817702 0.49069428 2.0840001
-0.10727611 0.34000123 1.4440001
-0.10051005 0.33011198 1.4020001
-0.09631151 0.32822832 1.3940001
-0.092553496 0.32775742 1.3920001
-0.08874201 0.32705104 1.3890001
-0.085007399 0.32658014 1.3870001
-0.081283204 0.3261092 1.3850001
-0.077569395 0.32563826 1.383
-0.073812515 0.32493192 1.3800001
-0.070173003 0.32469645 1.3790001
-0.066490412 0.32422554 1.3770001
-0.062818222 0.32375464 1.3750001
-0.059156425 0.3232837 1.373
-0.05554552 0.32304826 1.3720001
-0.051901933 0.32257736 1.3700001
-0.048268743 0.32210642 1.368
-0.044645961 0.32163551 1.3660001
-0.040973414 0.32069367 1.3620001
-0.03734915 0.3199873 1.3590001
-0.033740487 0.31928092 1.3560001
-0.030125152 0.31833911 1.3520001
-0.026550295 0.31763273 1.3490001
-0.022991044 0.31692636 1.3460001
-0.019447396 0.31621996 1.3430001
-0.015919348 0.31551358 1.34
-0.012416187 0.31504267 1.3380001
-0.0089234253 0.31457177 1.3360001
-0.0054451432 0.3143363 1.335
-0.0019705847 0.31386539 1.3330001
0.0014946942 0.31362993 1.332
0.0049547725 0.31339449 1.3310001
0.0084159728 0.31339449 1.3310001
0.011877173 0.31339449 1.3310001
0.015326849 0.31315902 1.33
0.018785449 0.31315902 1.33
0.022244047 0.31315902 1.33
0.025702648 0.31315902 1.33
0.029139323 0.31292358 1.3290001
0.032595322 0.31292358 1.3290001
0.036051322 0.31292358 1.3290001
0.039507322 0.31292358 1.3290001
0.042963319 0.31292358 1.3290001
0.046419322 0.31292358 1.3290001
0.049875323 0.31292358 1.3290001
0.053371444 0.31315902 1.33
0.056915503 0.31362993 1.332
0.0603793 0.31362993 1.332
0.13618417 0.52624846 2.2350001
0.14193265 0.52601302 2.2340002
0.1476759 0.52577752 2.233
0.15334526 0.52530658 2.2310002
0.1590042 0.52483565 2.2290001
0.16465272 0.52436471 2.227
0.17013779 0.5234229 2.223
0.17568119 0.52271652 2.22
0.18112725 0.52177471 2.2160001
0.18663684 0.52106833 2.2130001
0.19221777 0.52059746 2.2110002
0.19769876 0.51989108 2.2080002
0.20316415 0.51918471 2.2050002
0.2086139 0.51847833 2.2020001
0.21414542 0.5180074 2.2
0.21966654 0.51753652 2.1980002
0.22538234 0.51753652 2.1980002
0.23204438 0.51965559 2.207
0.2375681 0.51918471 2.2050002
0.24297108 0.51847833 2.2020001
0.24824549 0.51753652 2.1980002
0.25361466 0.51683015 2.1950002
0.25908637 0.51635921 2.1930001
0.26466841 0.51612377 2.1920002
0.27073863 0.51683015 2.1950002
0.27619472 0.51635921 2.1930001
0.28176898 0.51612377 2.1920002
0.28733805 0.51588833 2.1910002
0.29290184 0.51565284 2.1900001
0.29832417 0.5151819 2.1880002
0.30401397 0.5151819 2.1880002
0.30942065 0.51471096 2.1860001
0.3151052 0.51471096 2.1860001
0.3206431 0.51447552 2.1850002
0.32617569 0.51424003 2.184
0.33185506 0.51424003 2.184
0.33768901 0.51447552 2.1850002
0.34337103 0.51447552 2.1850002
0.34921274 0.51471096 2.1860001
0.35522202 0.5151819 2.1880002
0.3612417 0.51565284 2.1900001
0.36710426 0.51588833 2.1910002
0.37314212 0.51635921 2.1930001
0.37919044 0.51683015 2.1950002
0.38489842 0.51683015 2.1950002
0.39220795 0.51894921 2.204
0.39793935 0.51894921 2.204
0.41008115 0.52719027 2.2390001
0.43280721 0.54861695 2.3300002
0.45393458 0.56745356 2.4100001
0.47910625 0.59076387 2.5090001
0.67775017 0.78242666 3.3230002
0.43633184 0.40969676 1.7400001
0.43984318 0.40875491 1.7360001
0.44384566 0.40828401 1.7340001
0.44783768 0.4078131 1.7320001
0.45364749 0.40899038 1.7370001
0.45526305 0.40640035 1.7260001
0.4597514 0.40640035 1.7260001
0.46397081 0.40616488 1.725
0.46791348 0.40569398 1.723
0.47349072 0.40663582 1.7270001
0.47742814 0.40616488 1.725
0.46906289 0.39533386 1.6790001
0.47004539 0.39250833 1.6670001
0.47409579 0.39227289 1.6660001
0.47727942 0.39133105 1.6620001
0.48015252 0.39015377 1.6570001
0.48329201 0.38921192 1.6530001
0.4867056 0.38850555 1.6500001
0.48950851 0.38732827 1.6450001
0.49288574 0.38662189 1.6420001
0.49594456 0.38568008 1.6380001
0.49867722 0.38450277 1.6330001
0.50076795 0.38285455 1.626
0.49909532 0.37838086 1.6070001
0.50076884 0.37649721 1.5990001
0.50271654 0.37484899 1.5920001
0.50462776 0.37320077 1.585
0.50778657 0.3724944 1.582
0.50737041 0.36919799 1.5680001
0.50851226 0.36707887 1.559
0.51092249 0.36590159 1.554
0.51330668 0.36472428 1.549
0.51332706 0.36189881 1.5370001
0.51261187 0.3586024 1.5230001
0.51351964 0.35648328 1.5140001
0.51403892 0.35412869 1.5040001
0.51519495 0.35224503 1.4960001
0.51700336 0.35083228 1.4900001
0.51808137 0.34894863 1.4820001
0.51559597 0.34471038 1.4640001
0.51195252 0.33976576 1.4430001
0.50819993 0.33482113 1.4220001
0.50073826 0.32752195 1.391
0.49565345 0.32187098 1.3670001
0.48934826 0.31551358 1.34
0.4847416 0.31033352 1.3180001
0.47520548 0.30209252 1.2830001
0.47742289 0.30138612 1.2800001
0.47924912 0.30044428 1.276
0.48105454 0.29950246 1.2720001
0.48283914 0.29856062 1.268
0.48460296 0.29761881 1.2640001
0.48673198 0.29691243 1.261
0.48884538 0.29620603 1.258
0.49133435 0.29573512 1.256
0.49341914 0.29502875 1.253
0.49588475 0.29455784 1.251
0.49833992 0.29408693 1.2490001
0.50078475 0.29361603 1.2470001
0.50321907 0.29314509 1.245
0.50523627 0.29243875 1.2420001
0.50723785 0.29173234 1.2390001
0.50881183 0.2907905 1.235
0.51036501 0.28984869 1.2310001
0.51189744 0.28890687 1.2270001
0.51298916 0.28772956 1.222
0.51405495 0.28655225 1.217
0.51551974 0.28561044 1.2130001
0.51653612 0.28443316 1.2080001
0.51795667 0.28349134 1.2040001
0.51935643 0.2825495 1.2
0.52160615 0.28207856 1.1980001
0.52384549 0.28160766 1.1960001
0.52607441 0.28113672 1.194
0.52873617 0.28090128 1.1930001
0.53139269 0.28066581 1.192
0.53404409 0.28043038 1.1910001
0.5371412 0.28043038 1.1910001
0.53978473 0.28019491 1.1900001
0.54287928 0.28019491 1.1900001
0.54551494 0.27995944 1.189
0.54860693 0.27995944 1.189
0.55169886 0.27995944 1.189
0.55432421 0.279724 1.1880001
0.55741358 0.279724 1.1880001
0.56003106 0.27948853 1.187
0.5631178 0.27948853 1.187
0.56620455 0.27948853 1.187
0.56881171 0.2792531 1.1860001
0.57189584 0.2792531 1.1860001
0.57497996 0.2792531 1.1860001
0.57855147 0.27948853 1.187
0.58212823 0.279724 1.1880001
-1.1720661 0.51444411 2.161
-1.1664464 0.51444411 2.161
-1.1613642 0.51468217 2.1620002
-1.155742 0.51468217 2.1620002
-1.1501198 0.51468217 2.1620002
-1.1439682 0.51444411 2.161
-1.1357149 0.51325381 2.1560001
-1.1290599 0.51277769 2.154
-1.1224154 0.51230162 2.1520002
-1.1152624 0.51158744 2.1490002
-1.1091576 0.51134932 2.148
-1.1040857 0.51158744 2.1490002
-1.0959414 0.51039708 2.1440001
-1.078669 0.50492173 2.1210001
-1.0711296 0.50396955 2.1170001
-1.0631076 0.50277925 2.112
-1.0556123 0.501827 2.108
-1.0486361 0.50111282 2.105
-1.0416754 0.50039864 2.102
-1.0347306 0.49968451 2.0990002
-1.0282913 0.49920836 2.0970001
-1.0223505 0.49897033 2.0960002
-1.013989 0.49754196 2.0900002
-1.0080714 0.49730387 2.089
-1.003599 0.49778003 2.0910001
-0.99816149 0.49778003 2.0910001
-0.99319869 0.49801806 2.092
-0.98870295 0.49849421 2.0940001
-0.9837271 0.49873224 2.095
-0.97921306 0.49920836 2.0970001
-0.97515309 0.49992254 2.1000001
-0.97061557 0.50039864 2.102
-0.96698606 0.50135094 2.1060002
-0.96287924 0.50206512 2.1090002
-0.95966464 0.50325537 2.1140001
-0.95597261 0.50420755 2.118
-0.95181119 0.50492173 2.1210001
-0.94808024 0.50587398 2.125
-0.94432855 0.50682628 2.1290002
-0.94099694 0.50801653 2.1340001
-0.93763936 0.50920683 2.1390002
-0.93382001 0.51015908 2.1430001
-0.93041295 0.51134932 2.148
-0.92698002 0.51253963 2.1530001
-0.92352092 0.51372993 2.158
-0.91961068 0.51468217 2.1620002
-0.91567945 0.51563442 2.1660001
-0.91130733 0.5163486 2.1690001
-0.90691966 0.51706278 2.1720002
-0.90251631 0.51777697 2.1750002
-0.89727265 0.51801497 2.1760001
-0.8920238 0.51825303 2.177
-0.88636261 0.51825303 2.177
-0.87989241 0.51777697 2.1750002
-0.4921068 0.30947587 1.3000001
-0.48947808 0.30995196 1.302
-0.48646569 0.31019005 1.3030001
-0.48307729 0.31019005 1.3030001
-0.47968888 0.31019005 1.3030001
-0.47630051 0.31019005 1.3030001
-0.47254917 0.30995196 1.302
-0.46844271 0.30947587 1.3000001
-0.46434665 0.30899975 1.2980001
-0.45990583 0.30828556 1.2950001
-0.4558332 0.30780947 1.2930001
-0.4517709 0.30733332 1.291
-0.44771904 0.3068572 1.289
-0.4436776 0.30638111 1.2870001
-0.4403308 0.30638111 1.2870001
-0.43698403 0.30638111 1.2870001
-0.43397421 0.30661917 1.2880001
-0.43095914 0.3068572 1.289
-0.42827061 0.30733332 1.291
-0.42557174 0.30780947 1.2930001
-0.42286241 0.30828556 1.2950001
-0.42046663 0.30899975 1.2980001
-0.41773391 0.30947587 1.3000001
-0.41530952 0.31019005 1.3030001
-0.41318563 0.31114227 1.307
-0.41104102 0.31209451 1.3110001
-0.40887552 0.31304672 1.3150001
-0.40668929 0.31399897 1.319
-0.40448222 0.31495121 1.3230001
-0.40225431 0.31590343 1.327
-0.39910409 0.31614149 1.3280001
-0.39624652 0.31661761 1.33
-0.6618892 0.54801029 2.302
-0.65675783 0.54872447 2.3050001
-0.65189302 0.54967672 2.309
-0.64365077 0.54777229 2.3010001
-0.63877571 0.54872447 2.3050001
-0.63415426 0.54991484 2.3100002
-0.62896299 0.55062902 2.3130002
-0.62348682 0.55110508 2.3150001
-0.61800021 0.5515812 2.3170002
-0.61514437 0.55443788 2.329
-0.60882646 0.55419981 2.3280001
-0.60251373 0.55396181 2.3270001
-0.59543723 0.55300957 2.3230002
-0.58965003 0.55324763 2.3240001
-0.58335549 0.55300957 2.3230002
-0.57607204 0.55181926 2.3180001
-0.56955236 0.5513432 2.3160002
-0.29094914 0.31495121 1.3230001
-0.28707412 0.31447509 1.3210001
-0.28363889 0.31447509 1.3210001
-0.2802037 0.31447509 1.3210001
-0.27676851 0.31447509 1.3210001
-0.27312639 0.31423703 1.3200001
-0.26948947 0.31399897 1.319
-0.26605949 0.31399897 1.319
-0.26243037 0.31376091 1.3180001
-0.25880647 0.31352285 1.317
-0.25518778 0.31328481 1.3160001
-0.25176558 0.31328481 1.3160001
-0.24796595 0.31280866 1.314
-0.24454896 0.31280866 1.314
-0.24113198 0.31280866 1.314
-0.23753408 0.31257063 1.3130001
-0.23394136 0.31233254 1.312
-0.23052958 0.31233254 1.312
-0.22694468 0.31209451 1.3110001
-0.22336498 0.31185645 1.3100001
-0.21979047 0.31161839 1.309
-0.21655181 0.31185645 1.3100001
-0.21330792 0.31209451 1.3110001
-0.20989874 0.31209451 1.3110001
-0.20664704 0.31233254 1.312
-0.20339015 0.31257063 1.3130001
-0.20012806 0.31280866 1.314
-0.19686078 0.31304672 1.3150001
-0.19314697 0.31257063 1.3130001
-0.31587532 0.5299179 2.2260001
-0.31092253 0.53134626 2.2320001
-0.30621192 0.53325069 2.24
-0.30092335 0.53420299 2.2440002
-0.29640296 0.53658354 2.2540002
-0.29260391 0.54039252 2.2700002
-0.28758499 0.54205889 2.2770002
-0.28215855 0.54301113 2.2810001
-0.27671134 0.54396331 2.2850001
-0.27100632 0.54443949 2.2870002
-0.26517498 0.5446775 2.2880001
-0.25911185 0.54443949 2.2870002
-0.2530539 0.54420137 2.286
-0.24278541 0.53467906 2.2460001
-0.23472936 0.52967983 2.2250001
-0.22894338 0.52967983 2.2250001
-0.2199479 0.52206194 2.1930001
-0.21072809 0.51349187 2.1570001
-0.15727441 0.44207436 1.8570001
-0.10668179 0.3418518 1.4360001
-0.10058175 0.33399588 1.4030001
-0.096449688 0.33232945 1.396
-0.092686474 0.33185333 1.3940001
-0.08886978 0.33113918 1.391
-0.085068688 0.33042499 1.388
-0.081341885 0.32994887 1.386
-0.077625483 0.32947275 1.3840001
-0.073919483 0.32899666 1.3820001
-0.07022389 0.32852054 1.3800001
-0.066538692 0.32804441 1.378
-0.062863901 0.32756829 1.376
-0.059199512 0.32709217 1.3740001
-0.05554552 0.32661608 1.3720001
-0.051901933 0.32613996 1.3700001
-0.048268743 0.32566383 1.368
-0.044645961 0.32518771 1.3660001
-0.040973414 0.3242355 1.3620001
-0.03734915 0.32352132 1.3590001
-0.033740487 0.32280713 1.3560001
-0.030125152 0.32185492 1.3520001
-0.026569976 0.32137877 1.35
-0.023008127 0.32066461 1.3470001
-0.019447396 0.31971237 1.3430001
-0.01593123 0.31923625 1.3410001
-0.012416187 0.31852207 1.3380001
-0.0089234253 0.31804597 1.3360001
-0.0054410649 0.31756985 1.3340001
-0.0019705847 0.31733179 1.3330001
0.0014946942 0.31709373 1.332
0.004958495 0.31709373 1.332
0.0084159728 0.31685567 1.3310001
0.011868249 0.31661761 1.33
0.015326849 0.31661761 1.33
0.018785449 0.31661761 1.33
0.022244047 0.31661761 1.33
0.025702648 0.31661761 1.33
0.029139323 0.31637958 1.3290001
0.032595322 0.31637958 1.3290001
0.036051322 0.31637958 1.3290001
0.039507322 0.31637958 1.3290001
0.04293099 0.31614149 1.3280001
0.046384394 0.31614149 1.3280001
0.04983779 0.31614149 1.3280001
0.053331319 0.31637958 1.3290001
0.056872778 0.31685567 1.3310001
0.12973051 0.52944183 2.2240002
0.13618417 0.53206044 2.2350001
0.14193265 0.53182238 2.2340002
0.1476759 0.53158426 2.233
0.15334526 0.5311082 2.2310002
0.1590042 0.53063208 2.2290001
0.16465272 0.53015596 2.227
0.17013779 0.52920371 2.223
0.17560206 0.52825147 2.2190001
0.18104552 0.52729928 2.2150002
0.18663684 0.5268231 2.2130001
0.19213082 0.52610892 2.21
0.1976092 0.5253948 2.207
0.20307198 0.52468061 2.204
0.20851918 0.52396649 2.2010002
0.21395075 0.52325231 2.1980002
0.21946666 0.52277613 2.1960001
0.22527978 0.52301419 2.197
0.23193924 0.52515674 2.2060001
0.23735261 0.52444255 2.2030001
0.24286073 0.52396649 2.2010002
0.24801961 0.52277613 2.1960001
0.25338358 0.52206194 2.1930001
0.2588501 0.52158588 2.1910002
0.26454768 0.52158588 2.1910002
0.26999858 0.52110976 2.1890001
0.27556503 0.5208717 2.1880002
0.2812548 0.5208717 2.1880002
0.2869446 0.5208717 2.1880002
0.29236686 0.52039558 2.1860001
0.29791513 0.52015752 2.1850002
0.30359712 0.52015752 2.1850002
0.30913752 0.51991946 2.184
0.31481689 0.51991946 2.184
0.32034957 0.51968139 2.1830001
0.32602635 0.51968139 2.1830001
0.33170313 0.51968139 2.1830001
0.3373799 0.51968139 2.1830001
0.34321386 0.51991946 2.184
0.34921274 0.52039558 2.1860001
0.35505965 0.52063358 2.187
0.36107677 0.52110976 2.1890001
0.36693668 0.52134776 2.1900001
0.37280184 0.52158588 2.1910002
0.37884495 0.52206194 2.1930001
0.38472307 0.5223 2.194
0.39203003 0.52444255 2.2030001
0.39775881 0.52444255 2.2030001
0.41008115 0.53301263 2.2390001
0.42742032 0.54777229 2.3010001
0.44771889 0.56586468 2.3770001
0.47146806 0.58776605 2.4690001
0.538252 0.65323216 2.7440002
0.4479509 0.42088717 1.7680001
0.4525485 0.42088717 1.7680001
0.45714608 0.42088717 1.7680001
0.46122134 0.42041105 1.766
0.46502247 0.4196969 1.7630001
0.46854153 0.41874465 1.7590001
0.47203988 0.41779241 1.7550001
0.47524586 0.41660213 1.7500001
0.47486156 0.41231707 1.7320001
0.47853523 0.41160288 1.7290001
0.46934223 0.39993805 1.6800001
0.47596678 0.4018425 1.6880001
0.47466493 0.39708135 1.6680001
0.47785375 0.3961291 1.664
0.48073205 0.3949388 1.659
0.48387676 0.39398658 1.6550001
0.48700055 0.39303434 1.651
0.49010363 0.3920821 1.6470001
0.49318591 0.39112988 1.6430001
0.49624732 0.39017764 1.6390001
0.49898258 0.38898736 1.6340001
0.50076795 0.38708287 1.626
0.49754244 0.3813695 1.6020001
0.49951613 0.37970307 1.595
0.5014534 0.37803668 1.5880001
0.50526458 0.37779862 1.5870001
0.50650269 0.37565607 1.5780001
0.50672328 0.3727994 1.5660001
0.50785995 0.37065685 1.557
0.51026493 0.36946657 1.552
0.51231259 0.36803824 1.5460001
0.51299304 0.36565763 1.536
0.51261187 0.36256289 1.5230001
0.51351964 0.36042035 1.5140001
0.51369715 0.35780171 1.503
0.51519495 0.35613531 1.4960001
0.51735032 0.354945 1.4910001
0.51843095 0.35304055 1.483
0.51770902 0.34994578 1.47
0.51195252 0.3435182 1.4430001
0.50712776 0.33780479 1.419
0.50073826 0.33113918 1.391
0.49420309 0.32447353 1.363
0.4886179 0.31852207 1.3380001
0.48400605 0.31328481 1.3160001
0.47446465 0.30495274 1.281
0.47630394 0.30400053 1.2770001
0.47812235 0.30304828 1.273
0.47991997 0.30209604 1.2690001
0.48169681 0.30114383 1.2650001
0.4838362 0.30042964 1.2620001
0.48596001 0.29971546 1.2590001
0.48767963 0.29876325 1.2550001
0.49016076 0.29828712 1.253
0.49263158 0.297811 1.251
0.49509197 0.29733488 1.2490001
0.49754196 0.29685879 1.2470001
0.49998149 0.29638264 1.245
0.50241071 0.29590651 1.243
0.50442266 0.29519236 1.24
0.50641906 0.29447821 1.2370001
0.50798786 0.29352593 1.233
0.50953585 0.29257372 1.2290001
0.51106298 0.29162148 1.225
0.51214957 0.29043117 1.22
0.51321012 0.2892409 1.215
0.51424474 0.28805059 1.21
0.51568091 0.28709838 1.2060001
0.51666605 0.2859081 1.2010001
0.51849079 0.28519392 1.1980001
0.52029991 0.28447974 1.1950001
0.52253151 0.28400362 1.1930001
0.52475268 0.28352752 1.1910001
0.52740657 0.28328943 1.1900001
0.53005528 0.28305137 1.189
0.53269887 0.28281334 1.1880001
0.53578818 0.28281334 1.1880001
0.5384239 0.28257525 1.187
0.54151064 0.28257525 1.187
0.54413861 0.28233722 1.1860001
0.54676133 0.28209916 1.1850001
0.54984289 0.28209916 1.1850001
0.55292439 0.28209916 1.1850001
0.55553669 0.2818611 1.184
0.55814385 0.28162304 1.1830001
0.56122017 0.28162304 1.1830001
0.56381953 0.28138497 1.182
0.5664137 0.28114694 1.1810001
0.56948477 0.28114694 1.1810001
0.57255596 0.28114694 1.1810001
0.57611442 0.28138497 1.182
0.57918817 0.28138497 1.182
-1.1568798 0.51332521 2.1330001
-1.1518726 0.5135659 2.1340001
-1.1468605 0.51380652 2.135
-1.1418432 0.51404721 2.1360002
-1.1368206 0.51428783 2.1370001
-1.1323222 0.5147692 2.1390002
-1.133081 0.51765704 2.151
-1.1269633 0.51741642 2.1500001
-1.1203291 0.51693511 2.148
-1.1095537 0.51452851 2.138
-1.1029612 0.51404721 2.1360002
-1.08559 0.50851208 2.1130002
-1.0785618 0.50779009 2.1100001
-1.0766346 0.50947469 2.1170001
-1.0691057 0.50851208 2.1130002
-1.0610942 0.50730872 2.108
-1.0536093 0.50634611 2.1040001
-1.0471416 0.5058648 2.102
-1.0401888 0.50514287 2.0990002
-1.0337446 0.5046615 2.0970001
-1.0273106 0.50418019 2.095
-1.0213749 0.50393951 2.0940001
-1.0135038 0.50273621 2.089
-1.0071063 0.5022549 2.0870001
-1.0026391 0.50273621 2.089
-0.99720675 0.50273621 2.089
-0.99224919 0.50297689 2.0900002
-0.98775858 0.5034582 2.092
-0.98278803 0.50369889 2.0930002
-0.97827911 0.50418019 2.095
-0.97422427 0.50490212 2.098
-0.97015381 0.50562412 2.1010001
-0.96652687 0.50658673 2.105
-0.96287924 0.50754946 2.1090002
-0.95966464 0.5087527 2.1140001
-0.95597261 0.50971532 2.118
-0.95226002 0.51067799 2.1220002
-0.94897258 0.51188129 2.1270001
-0.94521558 0.51284391 2.131
-0.94231981 0.51428783 2.1370001
-0.93895447 0.51549119 2.1420002
-0.93556297 0.51669443 2.1470001
-0.9325788 0.51813841 2.1530001
-0.9291327 0.51934165 2.158
-0.92523283 0.52030432 2.1620002
-0.92173737 0.52150762 2.1670001
-0.91779315 0.52247024 2.171
-0.91340804 0.52319223 2.174
-0.90900731 0.52391422 2.177
-0.90417606 0.52439553 2.1790001
-0.89892203 0.52463615 2.1800001
-0.89325303 0.52463615 2.1800001
-0.88758403 0.52463615 2.1800001
-0.4905926 0.31189379 1.296
-0.48797432 0.31237513 1.2980001
-0.4849723 0.31261578 1.299
-0.48196504 0.31285644 1.3000001
-0.47858444 0.31285644 1.3000001
-0.47483832 0.31261578 1.299
-0.47146031 0.31261578 1.299
-0.46736169 0.31213447 1.2970001
-0.46363112 0.31189379 1.296
-0.45919555 0.31117183 1.2930001
-0.45512807 0.31069049 1.291
-0.45142099 0.31044987 1.2900001
-0.44737172 0.30996856 1.2880001
-0.4436776 0.30972788 1.2870001
-0.4403308 0.30972788 1.2870001
-0.43732357 0.30996856 1.2880001
-0.43431112 0.31020918 1.289
-0.43129349 0.31044987 1.2900001
-0.42827061 0.31069049 1.291
-0.42557174 0.31117183 1.2930001
-0.42286241 0.31165314 1.2950001
-0.42014268 0.31213447 1.2970001
-0.41741258 0.31261578 1.299
-0.41499078 0.31333774 1.302
-0.41255337 0.31405973 1.3050001
-0.41041392 0.31502235 1.309
-0.40794274 0.31574434 1.312
-0.40607262 0.31694764 1.317
-0.40387076 0.31791028 1.3210001
-0.40134495 0.31863227 1.3240001
-0.39820248 0.3188729 1.325
-0.39535272 0.31935421 1.327
-0.64837545 0.54268563 2.2550001
-0.64251143 0.54268563 2.2550001
-0.6372121 0.54316694 2.2570002
-0.63218194 0.54388887 2.26
-0.62741357 0.54485154 2.2640002
-0.62262422 0.54581416 2.2680001
-0.61808592 0.54701746 2.273
-0.61325252 0.54798013 2.2770002
-0.60786468 0.54846138 2.279
-0.60352296 0.54990536 2.2850001
-0.59836555 0.55062735 2.2880001
-0.59474605 0.55279326 2.2970002
-0.58749121 0.55158997 2.2920001
-0.58153093 0.55158997 2.2920001
-0.55723882 0.53402185 2.2190001
-0.53606009 0.51910102 2.1570001
-0.51681221 0.5111593 2.1240001
-0.29692942 0.31742895 1.319
-0.29349944 0.31742895 1.319
-0.29006943 0.31742895 1.319
-0.28663945 0.31742895 1.319
-0.28320944 0.31742895 1.319
-0.27977946 0.31742895 1.319
-0.27634946 0.31742895 1.319
-0.27271256 0.31718829 1.3180001
-0.26908085 0.31694764 1.317
-0.26565605 0.31694764 1.317
-0.26223126 0.31694764 1.317
-0.25860998 0.31670699 1.3160001
-0.25499386 0.31646633 1.3150001
-0.25157428 0.31646633 1.3150001
-0.24796595 0.31622565 1.314
-0.24436286 0.31598502 1.3130001
-0.24094848 0.31598502 1.3130001
-0.23753408 0.31598502 1.3130001
-0.23394136 0.31574434 1.312
-0.23035389 0.31550369 1.3110001
-0.22694468 0.31550369 1.3110001
-0.22336498 0.31526303 1.3100001
-0.22012632 0.31550369 1.3110001
-0.21671712 0.31550369 1.3110001
-0.21347061 0.31574434 1.312
-0.21021894 0.31598502 1.3130001
-0.20696205 0.31622565 1.314
-0.20369996 0.31646633 1.3150001
-0.20043267 0.31670699 1.3160001
-0.19701049 0.31670699 1.3160001
-0.19344117 0.31646633 1.3150001
-0.3154496 0.53498453 2.223
-0.31050465 0.53642845 2.2290001
-0.30566511 0.53811306 2.2360001
-0.30038691 0.53907567 2.24
-0.29627144 0.54220426 2.253
-0.2928617 0.54677677 2.2720001
-0.28758499 0.54798013 2.2770002
-0.28228226 0.54918337 2.2820001
-0.27683243 0.55014598 2.286
-0.27112478 0.55062735 2.2880001
-0.26529086 0.55086797 2.289
-0.25922513 0.55062735 2.2880001
-0.25316462 0.55038667 2.2870002
-0.24267732 0.54027903 2.2450001
-0.23525684 0.53666914 2.23
-0.22935496 0.53642845 2.2290001
-0.2201485 0.5282461 2.1950002
-0.2145382 0.52848673 2.1960001
-0.20293175 0.5135659 2.1340001
-0.1363553 0.39973429 1.6610001
-0.10051005 0.33740366 1.4020001
-0.096518777 0.33620036 1.3970001
-0.092752963 0.33571905 1.3950001
-0.088933676 0.33499706 1.3920001
-0.085191265 0.33451575 1.3900001
-0.081459261 0.33403441 1.388
-0.077681579 0.33331245 1.3850001
-0.07397297 0.33283111 1.383
-0.07027477 0.33234981 1.381
-0.066538692 0.33162782 1.378
-0.062863901 0.33114651 1.376
-0.059242599 0.33090585 1.3750001
-0.055586003 0.33042452 1.373
-0.051901933 0.32970259 1.3700001
-0.048268743 0.32922122 1.368
-0.044645961 0.32873991 1.3660001
-0.040973414 0.3277773 1.3620001
-0.03734915 0.32705531 1.3590001
-0.033765372 0.326574 1.3570001
-0.030147431 0.32561135 1.353
-0.026569976 0.32488936 1.35
-0.023025207 0.32440805 1.348
-0.019461878 0.32344544 1.3440001
-0.015943108 0.3229641 1.342
-0.012425466 0.32224214 1.3390001
-0.0089234253 0.32152015 1.3360001
-0.0054451432 0.3212795 1.335
-0.001972063 0.32103884 1.3340001
0.0014958164 0.32079819 1.3330001
0.004958495 0.3205575 1.332
0.0084159728 0.32031688 1.3310001
0.011868249 0.3200762 1.33
0.015326849 0.3200762 1.33
0.018785449 0.3200762 1.33
0.022227325 0.31983557 1.3290001
0.025683325 0.31983557 1.3290001
0.029117396 0.31959489 1.3280001
0.032570794 0.31959489 1.3280001
0.036024194 0.31959489 1.3280001
0.039477594 0.31959489 1.3280001
0.042898662 0.31935421 1.327
0.046349462 0.31935421 1.327
0.049800262 0.31935421 1.327
0.05329119 0.31959489 1.3280001
0.12967217 0.53498453 2.223
0.13618417 0.53787243 2.2350001
0.14193265 0.53763181 2.2340002
0.1476759 0.53739107 2.233
0.15334526 0.53690982 2.2310002
0.1590042 0.53642845 2.2290001
0.16465272 0.53594714 2.227
0.17013779 0.53498453 2.223
0.17536466 0.53329992 2.2160001
0.18088204 0.53257793 2.2130001
0.18646818 0.53209662 2.2110002
0.19195695 0.53137463 2.2080002
0.19743013 0.53065264 2.2050002
0.20288773 0.52993071 2.2020001
0.20832969 0.52920872 2.1990001
0.21365874 0.5282461 2.1950002
0.21916683 0.52776474 2.1930001
0.22620264 0.53089333 2.2060001
0.23183411 0.53065264 2.2050002
0.23713714 0.52969003 2.2010002
0.24264005 0.52920872 2.1990001
0.24768077 0.52776474 2.1930001
0.25315249 0.52728349 2.1910002
0.25873193 0.52704275 2.1900001
0.26418546 0.5265615 2.1880002
0.2695052 0.52583951 2.1850002
0.27506122 0.52559882 2.184
0.28086916 0.52583951 2.1850002
0.28641999 0.52559882 2.184
0.29183191 0.52511752 2.1820002
0.29750606 0.52511752 2.1820002
0.30318028 0.52511752 2.1820002
0.3087129 0.52487683 2.181
0.31438446 0.52487683 2.181
0.32005608 0.52487683 2.181
0.32587701 0.52511752 2.1820002
0.33155119 0.52511752 2.1820002
0.33722538 0.52511752 2.1820002
0.34305671 0.52535814 2.1830001
0.349053 0.52583951 2.1850002
0.35489732 0.52608013 2.1860001
0.36074686 0.52632076 2.187
0.36676916 0.52680212 2.1890001
0.37263167 0.52704275 2.1900001
0.37867221 0.52752411 2.1920002
0.38454771 0.52776474 2.1930001
0.39185208 0.52993071 2.2020001
0.39775881 0.53017133 2.2030001
0.41008115 0.53883505 2.2390001
0.4270488 0.55327457 2.299
0.4460237 0.56988001 2.368
0.46402079 0.5848009 2.4300001
0.48969546 0.60886681 2.5300002
0.51961714 0.63750517 2.6490002
0.44313693 0.42091224 1.7490001
0.44691724 0.42019024 1.7460001
0.45740461 0.4257254 1.7690001
0.46148252 0.42524409 1.7670001
0.46528623 0.42452213 1.7640001
0.46880794 0.42355949 1.7600001
0.47230884 0.42259684 1.756
0.47578898 0.42163423 1.7520001
0.47486156 0.41682106 1.7320001
0.47881204 0.41633973 1.7300001
0.46934223 0.40430677 1.6800001
0.47596678 0.40623206 1.6880001
0.47494948 0.40165952 1.669
0.47785375 0.40045622 1.664
0.48073205 0.39925295 1.659
0.48387676 0.39829031 1.6550001
0.48700055 0.39732766 1.651
0.49040124 0.3966057 1.6480001
0.49348608 0.39564306 1.6440001
0.49624732 0.39443976 1.6390001
0.49898258 0.39323649 1.6340001
0.49584037 0.38746068 1.6100001
0.49630013 0.38457274 1.598
0.49857661 0.38312882 1.5920001
0.50334811 0.38361013 1.5940001
0.50462776 0.38144419 1.585
0.50586075 0.37927827 1.5760001
0.50607616 0.37639037 1.5640001
0.50720757 0.37422442 1.5550001
0.5092786 0.37278047 1.549
0.51131845 0.37133655 1.5430001
0.51199114 0.36892995 1.5330001
0.51294839 0.36676401 1.524
0.51351964 0.36435741 1.5140001
0.51369715 0.36171016 1.503
0.51553941 0.36026624 1.4970001
0.51769733 0.35906294 1.4920001
0.51878053 0.35713765 1.4840001
0.51770902 0.35376844 1.47
0.51195252 0.34727064 1.4430001
0.50641304 0.34101352 1.4170001
0.5000183 0.33427507 1.3890001
0.49384055 0.3277773 1.3620001
0.48752233 0.3212795 1.335
0.48363826 0.31646633 1.3150001
0.47335353 0.30756196 1.2780001
0.47518498 0.30659932 1.274
0.47699562 0.30563667 1.2700001
0.4787854 0.30467403 1.266
0.48055446 0.30371141 1.2620001
0.48268601 0.30298942 1.2590001
0.48480204 0.30226746 1.256
0.48690242 0.30154547 1.253
0.48937839 0.30106416 1.251
0.49145019 0.30034217 1.248
0.4939028 0.29986086 1.2460001
0.49634498 0.29937956 1.2440001
0.49877676 0.29889825 1.2420001
0.50119811 0.29841691 1.24
0.50320232 0.29769495 1.2370001
0.50519091 0.29697296 1.2340001
0.50675189 0.29601032 1.23
0.50829202 0.2950477 1.2260001
0.5098114 0.29408506 1.222
0.51089019 0.29288176 1.217
0.51194292 0.29167846 1.212
0.51296973 0.29047516 1.207
0.51439816 0.28951254 1.2030001
0.51580566 0.2885499 1.199
0.51719242 0.28758726 1.1950001
0.51899374 0.28686529 1.192
0.52121753 0.28638399 1.1900001
0.52343088 0.28590265 1.1880001
0.52607697 0.285662 1.187
0.52871794 0.28542134 1.1860001
0.53135365 0.28518069 1.1850001
0.53443515 0.28518069 1.1850001
0.53751671 0.28518069 1.1850001
0.54014206 0.28494 1.184
0.54276216 0.28469938 1.1830001
0.54537714 0.2844587 1.182
0.54798687 0.28421807 1.1810001
0.55105799 0.28421807 1.1810001
0.55365992 0.28397739 1.1800001
0.55625665 0.28373671 1.179
0.55932254 0.28373671 1.179
0.56191152 0.28349608 1.1780001
0.56449521 0.2832554 1.177
0.5670737 0.28301474 1.176
0.57013184 0.28301474 1.176
0.57367742 0.2832554 1.177
0.57673812 0.2832554 1.177
-1.141151 0.51181751 2.1040001
-1.1362193 0.5120607 2.105
-1.1312826 0.51230401 2.1060002
-1.1263406 0.51254725 2.1070001
-1.1219254 0.51303381 2.1090002
-1.1174997 0.5135203 2.1110001
-1.1130638 0.51400685 2.1130002
-1.1086173 0.51449335 2.115
-1.103639 0.51473659 2.1160002
-1.1085159 0.51960182 2.1360002
-1.1014121 0.51887202 2.1330001
-1.0850762 0.51376355 2.112
-1.0775394 0.5127905 2.108
-1.0740918 0.51376355 2.112
-1.0665759 0.5127905 2.108
-1.0585774 0.51157427 2.1030002
-1.0516063 0.51084447 2.1000001
-1.045149 0.51035792 2.098
-1.0387021 0.50987142 2.0960002
-1.0322657 0.50938487 2.0940001
-1.02633 0.50914168 2.0930002
-1.0145463 0.5059793 2.0800002
-1.0125335 0.50768209 2.0870001
-1.0075889 0.50792533 2.0880001
-1.0016792 0.50768209 2.0870001
-0.99577475 0.50743884 2.0860002
-0.99082494 0.50768209 2.0870001
-0.98634207 0.50816858 2.089
-0.98137933 0.50841188 2.0900002
-0.97734529 0.50914168 2.0930002
-0.97329563 0.50987142 2.0960002
-0.96969211 0.51084447 2.1000001
-0.96606773 0.51181751 2.1040001
-0.96242261 0.5127905 2.108
-0.95921069 0.51400685 2.1130002
-0.95597261 0.51522309 2.118
-0.95270878 0.51643944 2.1230001
-0.94941872 0.51765567 2.128
-0.94610274 0.51887202 2.1330001
-0.94320178 0.52033156 2.1390002
-0.94026953 0.52179116 2.1450002
-0.93730599 0.52325064 2.151
-0.93431139 0.52471024 2.1570001
-0.93085498 0.52592653 2.1620002
-0.92737252 0.52714282 2.1670001
-0.92343873 0.52811581 2.171
-0.91948426 0.52908891 2.1750002
-0.9146685 0.52957541 2.177
-0.91026002 0.53030521 2.1800001
-0.90542096 0.5307917 2.1820002
-0.89974678 0.5307917 2.1820002
-0.89407259 0.5307917 2.1820002
-0.88839835 0.5307917 2.1820002
-0.4912948 0.31356117 1.289
-0.48945701 0.31453425 1.2930001
-0.48684648 0.31502074 1.2950001
-0.48385224 0.31526399 1.296
-0.48048204 0.31526399 1.296
-0.47711185 0.31526399 1.296
-0.47374168 0.31526399 1.296
-0.47037148 0.31526399 1.296
-0.46664101 0.31502074 1.2950001
-0.46291566 0.31477746 1.294
-0.4588404 0.31429097 1.2920001
-0.45512807 0.31404769 1.291
-0.45142099 0.31380445 1.2900001
-0.44771904 0.31356117 1.289
-0.44402236 0.31331795 1.2880001
-0.44067296 0.31331795 1.2880001
-0.43766308 0.31356117 1.289
-0.43431112 0.31356117 1.289
-0.43162781 0.31404769 1.291
-0.42827061 0.31404769 1.291
-0.42557174 0.31453425 1.2930001
-0.42286241 0.31502074 1.2950001
-0.42014268 0.31550726 1.2970001
-0.41741258 0.31599379 1.299
-0.41467208 0.31648031 1.3010001
-0.41223723 0.31721008 1.304
-0.40978688 0.31793985 1.307
-0.40732089 0.31866965 1.3100001
-0.40514761 0.31964266 1.314
-0.40295357 0.32061571 1.3180001
-0.40043554 0.32134551 1.3210001
-0.39760143 0.321832 1.3230001
-0.39445895 0.32207528 1.3240001
-0.39072061 0.321832 1.3230001
-0.64923799 0.54927945 2.2580001
-0.64479083 0.55049568 2.263
-0.6366474 0.54854965 2.2550001
-0.63162255 0.54927945 2.2580001
-0.62658215 0.55000919 2.2610002
-0.6218006 0.55098224 2.2650001
-0.617814 0.55268502 2.2720001
-0.61271381 0.55341482 2.2750001
-0.60733128 0.55390137 2.2770002
-0.59110916 0.54441422 2.2380002
-0.58502781 0.54417092 2.237
-0.56238067 0.52835912 2.1720002
-0.55673254 0.52835912 2.1720002
-0.53053284 0.50865513 2.0910001
-0.39453974 0.39870194 1.6390001
-0.30035943 0.32085896 1.319
-0.29670432 0.32061571 1.3180001
-0.2930544 0.32037243 1.317
-0.28962961 0.32037243 1.317
-0.28598753 0.32012919 1.3160001
-0.28256533 0.32012919 1.3160001
-0.27914312 0.32012919 1.3160001
-0.27572095 0.32012919 1.3160001
-0.27229872 0.32012919 1.3160001
-0.26867223 0.31988594 1.3150001
-0.26525265 0.31988594 1.3150001
-0.26183304 0.31988594 1.3150001
-0.25821692 0.31964266 1.314
-0.25479993 0.31964266 1.314
-0.25138295 0.31964266 1.314
-0.24777725 0.31939942 1.3130001
-0.24436286 0.31939942 1.3130001
-0.24094848 0.31939942 1.3130001
-0.23753408 0.31939942 1.3130001
-0.23394136 0.31915614 1.312
-0.23052958 0.31915614 1.312
-0.22694468 0.31891289 1.3110001
-0.22353549 0.31891289 1.3110001
-0.22012632 0.31891289 1.3110001
-0.21688242 0.31915614 1.312
-0.21363333 0.31939942 1.3130001
-0.21037903 0.31964266 1.314
-0.20711955 0.31988594 1.3150001
-0.20400976 0.32037243 1.317
-0.20058498 0.32037243 1.317
-0.1973099 0.32061571 1.3180001
-0.3150239 0.54003555 2.22
-0.30994743 0.5412519 2.2250001
-0.305255 0.54319793 2.233
-0.2999846 0.54417092 2.237
-0.29587692 0.5473333 2.25
-0.2929906 0.55292827 2.273
-0.28771129 0.55414462 2.2780001
-0.28240594 0.55536085 2.283
-0.27695355 0.55633396 2.2870002
-0.27112478 0.55657721 2.2880001
-0.26529086 0.55682045 2.289
-0.25933844 0.55682045 2.289
-0.25316462 0.55633396 2.2870002
-0.24278541 0.54636031 2.2460001
-0.23557334 0.54319793 2.233
-0.22956076 0.54271144 2.2310002
-0.22034909 0.53444058 2.197
-0.21463588 0.53444058 2.197
-0.20759138 0.53103495 2.1830001
-0.10051005 0.34104949 1.4020001
-0.096587874 0.34007648 1.3980001
-0.092752963 0.33934668 1.3950001
-0.088997558 0.33886012 1.393
-0.085191265 0.33813038 1.3900001
-0.081459261 0.33764383 1.388
-0.077737659 0.33715734 1.386
-0.07397297 0.33642754 1.383
-0.07027477 0.33594105 1.381
-0.066538692 0.33521125 1.378
-0.062909588 0.334968 1.3770001
-0.059199512 0.33423823 1.3740001
-0.05554552 0.33375171 1.3720001
-0.051901933 0.33326522 1.3700001
-0.048268743 0.33277866 1.368
-0.044613276 0.33204889 1.365
-0.040973414 0.33131912 1.3620001
-0.037376631 0.33083257 1.36
-0.033765372 0.33010283 1.3570001
-0.030169714 0.32937306 1.3540001
-0.026589658 0.32864326 1.3510001
-0.023042288 0.32815674 1.3490001
-0.019476356 0.32718369 1.345
-0.01595499 0.3266972 1.3430001
-0.012434746 0.3259674 1.34
-0.0089301039 0.32523763 1.337
-0.0054492224 0.32499439 1.3360001
-0.0019735412 0.32475111 1.335
0.0014958164 0.32426459 1.3330001
0.004958495 0.32402134 1.332
0.0084159728 0.32377809 1.3310001
0.011868249 0.32353482 1.33
0.015315326 0.32329157 1.3290001
0.018771326 0.32329157 1.3290001
0.022210598 0.32304829 1.3280001
0.025663998 0.32304829 1.3280001
0.029095469 0.32280502 1.327
0.032546267 0.32280502 1.327
0.035997067 0.32280502 1.327
0.039447863 0.32280502 1.327
0.042866338 0.3225618 1.3260001
0.046314538 0.3225618 1.3260001
0.049762737 0.3225618 1.3260001
0.053251058 0.32280502 1.327
0.13344221 0.53273779 2.1900001
0.13977252 0.53517038 2.2
0.14555965 0.53541368 2.2010002
0.15142071 0.53590018 2.2030001
0.15722084 0.53614336 2.204
0.16250862 0.53468388 2.1980002
0.16830096 0.53492713 2.1990001
0.17496899 0.53784627 2.2110002
0.18063682 0.53760296 2.21
0.18705852 0.53954905 2.2180002
0.19178307 0.53662992 2.2060001
0.19814643 0.53833276 2.2130001
0.20353268 0.53735971 2.2090001
0.20889813 0.53638667 2.2050002
0.21414542 0.53517038 2.2
0.21956658 0.53444058 2.197
0.2227163 0.52835912 2.1720002
0.22804907 0.52762938 2.1690001
0.23336621 0.52689958 2.1660001
0.23888846 0.52665633 2.1650002
0.24440546 0.52641302 2.164
0.25003284 0.52641302 2.164
0.2557784 0.52665633 2.1650002
0.26297802 0.52981871 2.1780002
0.26876515 0.53006196 2.1790001
0.27443153 0.53006196 2.1790001
0.28035495 0.53054845 2.181
0.28602657 0.53054845 2.181
0.29143065 0.53006196 2.1790001
0.29709703 0.53006196 2.1790001
0.30276343 0.53006196 2.1790001
0.30842981 0.53006196 2.1790001
0.31409618 0.53006196 2.1790001
0.31990933 0.53030521 2.1800001
0.3255783 0.53030521 2.1800001
0.3313992 0.53054845 2.181
0.33707079 0.53054845 2.181
0.34289956 0.5307917 2.1820002
0.34873348 0.53103495 2.1830001
0.35473499 0.5315215 2.1850002
0.36074686 0.53200799 2.187
0.36660162 0.5322513 2.1880002
0.37246153 0.53249454 2.1890001
0.37988147 0.53492713 2.1990001
0.38419703 0.5329811 2.1910002
0.38758123 0.52981871 2.1780002
0.39757827 0.53565693 2.2020001
0.40989801 0.54441422 2.2380002
0.41813263 0.54757661 2.2510002
0.43359229 0.55998284 2.302
0.446262 0.56849688 2.3370001
0.85813719 0.92876387 3.8180001
0.86806571 0.92876387 3.8180001
0.49898258 0.39748564 1.6340001
0.49430045 0.39043111 1.605
0.49505782 0.38775527 1.5940001
0.4973239 0.38629571 1.5880001
0.50176924 0.38653898 1.5890001
0.50367266 0.38483614 1.582
0.50232995 0.38070074 1.5650001
0.50704682 0.38118726 1.567
0.50688136 0.37802488 1.554
0.50862104 0.37632206 1.5470001
0.5103243 0.37461928 1.5400001
0.51165712 0.37267318 1.5320001
0.51227528 0.3702406 1.5220001
0.51385885 0.36853778 1.5150001
0.51403892 0.36586192 1.5040001
0.51622814 0.36464563 1.4990001
0.51839125 0.36342934 1.4940001
0.51878053 0.36099675 1.4840001
0.51735687 0.35734788 1.4690001
0.51124299 0.35053661 1.4410001
0.50534087 0.3439686 1.414
0.49965832 0.33764383 1.388
0.49347794 0.33107585 1.3610001
0.48679197 0.32426459 1.3330001
0.48290268 0.31939942 1.3130001
0.47224239 0.31015557 1.2750001
0.47406599 0.30918252 1.271
0.47549325 0.30796623 1.266
0.47727266 0.30699319 1.2620001
0.47941208 0.30626342 1.2590001
0.48153585 0.30553362 1.256
0.48364404 0.30480385 1.253
0.48573667 0.30407405 1.25
0.48820484 0.30358756 1.248
0.49066263 0.30310103 1.2460001
0.49311003 0.30261454 1.2440001
0.495547 0.30212802 1.2420001
0.49797356 0.30164146 1.24
0.50038975 0.30115497 1.238
0.50238872 0.30042517 1.235
0.5039627 0.29945216 1.2310001
0.50551593 0.29847914 1.2270001
0.50704825 0.29750606 1.223
0.50855988 0.29653305 1.2190001
0.50963086 0.29531676 1.2140001
0.51067579 0.29410046 1.2090001
0.51211977 0.29312742 1.205
0.51311535 0.29191113 1.2
0.5145151 0.29093808 1.1960001
0.515894 0.28996503 1.192
0.51768756 0.28923526 1.189
0.51990348 0.28874874 1.187
0.52254969 0.28850549 1.1860001
0.52519059 0.28826222 1.1850001
0.52782631 0.28801897 1.184
0.5304569 0.28777573 1.1830001
0.53308219 0.28753245 1.182
0.53615594 0.28753245 1.182
0.53877348 0.2872892 1.1810001
0.54138577 0.28704593 1.1800001
0.54399288 0.28680265 1.179
0.54659486 0.28655943 1.1780001
0.54919153 0.28631616 1.177
0.55225229 0.28631616 1.177
0.55484122 0.28607288 1.176
0.55742496 0.28582963 1.1750001
0.56048048 0.28582963 1.1750001
0.56305641 0.28558636 1.174
0.56562716 0.28534311 1.1730001
0.56819266 0.28509986 1.1720001
0.57172781 0.28534311 1.1730001
0.57477814 0.28534311 1.1730001
-1.1395239 0.51655126 2.1010001
-1.1340603 0.51655126 2.1010001
-1.1291338 0.51679707 2.102
-1.1247369 0.5172888 2.1040001
-1.1208614 0.51802641 2.1070001
-1.1164411 0.51851815 2.1090002
-1.1120102 0.51900983 2.1110001
-1.107569 0.51950157 2.1130002
-1.1025958 0.51974744 2.1140001
-1.0913899 0.51704299 2.1030002
-1.0854046 0.51679707 2.102
-1.083535 0.51851815 2.1090002
-1.0714055 0.51532197 2.0960002
-1.0715491 0.51802641 2.1070001
-1.0645521 0.5172888 2.1040001
-1.0555571 0.51556784 2.0970001
-1.0491024 0.5150761 2.095
-1.0426582 0.51458436 2.0930002
-1.0367198 0.51433849 2.092
-1.0302938 0.51384681 2.0900002
-1.0248588 0.51384681 2.0900002
-1.0164973 0.51237166 2.0840001
-1.011078 0.51237166 2.0840001
-1.0056586 0.51237166 2.0840001
-0.99975938 0.51212579 2.0830002
-0.99434268 0.51212579 2.0830002
-0.98940063 0.51237166 2.0840001
-0.98445344 0.51261747 2.085
-0.97997063 0.51310921 2.0870001
-0.9759444 0.51384681 2.0900002
-0.97236687 0.51483023 2.0940001
-0.96876854 0.51581365 2.098
-0.96514934 0.51679707 2.102
-0.9619661 0.51802641 2.1070001
-0.95875669 0.5192557 2.112
-0.95552135 0.52048498 2.1170001
-0.95270878 0.5219602 2.1230001
-0.94941872 0.52318943 2.128
-0.94654626 0.52466458 2.1340001
-0.94408363 0.52638561 2.141
-0.94114619 0.52786076 2.1470001
-0.93861324 0.52958179 2.154
-0.93517774 0.53081113 2.1590002
-0.93214667 0.53228629 2.1650002
-0.92822844 0.5332697 2.1690001
-0.9247148 0.53449899 2.174
-0.92032969 0.5352366 2.177
-0.91550881 0.53572834 2.1790001
-0.91109514 0.53646588 2.1820002
-0.90583587 0.53671175 2.1830001
-0.90057141 0.53695756 2.184
-0.89448231 0.53671175 2.1830001
-0.49091369 0.31666732 1.2880001
-0.48869988 0.31740487 1.291
-0.48571867 0.31765074 1.2920001
-0.48273227 0.3178966 1.2930001
-0.47936985 0.3178966 1.2930001
-0.47637558 0.31814244 1.294
-0.47301063 0.31814244 1.294
-0.46964562 0.31814244 1.294
-0.46592036 0.3178966 1.2930001
-0.46220019 0.31765074 1.2920001
-0.45848525 0.31740487 1.291
-0.45477557 0.31715903 1.2900001
-0.45142099 0.31715903 1.2900001
-0.44771904 0.31691316 1.289
-0.44436708 0.31691316 1.289
-0.44101506 0.31691316 1.289
-0.43766308 0.31691316 1.289
-0.43464807 0.31715903 1.2900001
-0.43162781 0.31740487 1.291
-0.42860234 0.31765074 1.2920001
-0.42557174 0.3178966 1.2930001
-0.42286241 0.31838831 1.2950001
-0.41981873 0.31863418 1.296
-0.41709125 0.31912592 1.2980001
-0.41435331 0.31961763 1.3000001
-0.41192111 0.32035521 1.3030001
-0.40947336 0.32109278 1.3060001
-0.40700993 0.32183036 1.309
-0.40453097 0.32256794 1.312
-0.40234211 0.32355139 1.3160001
-0.39982927 0.32428893 1.319
-0.39700037 0.32478067 1.3210001
-0.39416102 0.32527241 1.3230001
-0.39042526 0.32502651 1.322
-0.64365113 0.55539709 2.2590001
-0.63636512 0.55416781 2.2540002
-0.63134283 0.55490541 2.2570002
-0.62630498 0.5556429 2.26
-0.62152612 0.55662638 2.2640002
-0.61101592 0.55244678 2.2470002
-0.60625005 0.5534302 2.2510002
-0.59399498 0.54752952 2.227
-0.57578999 0.53597414 2.1800001
-0.55442965 0.52122259 2.1200001
-0.53959543 0.51237166 2.0840001
-0.34235159 0.34592462 1.4070001
-0.32713822 0.33412334 1.3590001
-0.32122299 0.33166474 1.3490001
-0.31630188 0.33018959 1.3430001
-0.30908275 0.32625583 1.327
-0.30517134 0.32576412 1.325
-0.29990399 0.32379723 1.317
-0.2962541 0.32355139 1.3160001
-0.29238686 0.32305965 1.314
-0.28896987 0.32305965 1.314
-0.28533557 0.32281381 1.3130001
-0.28192118 0.32281381 1.3130001
-0.27850679 0.32281381 1.3130001
-0.27509239 0.32281381 1.3130001
-0.27147105 0.32256794 1.312
-0.26805928 0.32256794 1.312
-0.26484922 0.32281381 1.3130001
-0.26123568 0.32256794 1.312
-0.25802043 0.32281381 1.3130001
-0.25460604 0.32281381 1.3130001
-0.25119165 0.32281381 1.3130001
-0.24777725 0.32281381 1.3130001
-0.24436286 0.32281381 1.3130001
-0.24094848 0.32281381 1.3130001
-0.23753408 0.32281381 1.3130001
-0.23394136 0.32256794 1.312
-0.23052958 0.32256794 1.312
-0.22711778 0.32256794 1.312
-0.22370599 0.32256794 1.312
-0.22029421 0.32256794 1.312
-0.21704774 0.32281381 1.3130001
-0.21379602 0.32305965 1.314
-0.21053915 0.32330552 1.3150001
-0.20743456 0.32379723 1.317
-0.20416467 0.3240431 1.3180001
-0.20073728 0.3240431 1.3180001
-0.1973099 0.3240431 1.3180001
-0.31805137 0.54113722 2.2010002
-0.31374681 0.54359585 2.2110002
-0.30911162 0.54556268 2.2190001
-0.3041614 0.54703784 2.2250001
-0.29958233 0.5492506 2.2340002
-0.29587692 0.55318433 2.25
-0.2929906 0.55883908 2.273
-0.28771129 0.56006843 2.2780001
-0.28265336 0.56178945 2.2850001
-0.27719572 0.56277287 2.289
-0.27124327 0.56277287 2.289
-0.26540679 0.56301874 2.2900002
-0.25945175 0.56301874 2.2900002
-0.25338599 0.56277287 2.289
-0.24300161 0.55269265 2.2480001
-0.23821075 0.55515122 2.2580001
-0.23233894 0.55515122 2.2580001
-0.22646712 0.55515122 2.2580001
-0.22059529 0.55515122 2.2580001
-0.21282159 0.55023402 2.2380002
-0.20376448 0.54162896 2.2030001
-0.19134668 0.53892452 2.1920002
-0.096518777 0.34346601 1.3970001
-0.092686474 0.34272844 1.3940001
-0.088997558 0.34248257 1.393
-0.085191265 0.34174502 1.3900001
-0.081459261 0.34125325 1.388
-0.077737659 0.34076154 1.386
-0.07397297 0.34002396 1.383
-0.07027477 0.33953226 1.381
-0.066538692 0.33879468 1.378
-0.062863901 0.33830297 1.376
-0.059199512 0.33781123 1.3740001
-0.05554552 0.33731952 1.3720001
-0.051901933 0.33682781 1.3700001
-0.048233464 0.33609024 1.3670001
-0.044613276 0.3355985 1.365
-0.041003495 0.33510679 1.363
-0.037376631 0.33436918 1.36
-0.033790253 0.33387747 1.358
-0.030191995 0.3331399 1.355
-0.026609341 0.33240235 1.3520001
-0.023059368 0.33191061 1.35
-0.019505318 0.33117303 1.3470001
-0.01596687 0.33043545 1.3440001
-0.012453305 0.32994372 1.342
-0.0089367833 0.3289603 1.3380001
-0.0054533007 0.32871443 1.337
-0.0019735412 0.32822269 1.335
0.0014958164 0.32773098 1.3330001
0.0049547725 0.32723927 1.3310001
0.0084159728 0.32723927 1.3310001
0.011868249 0.32699341 1.33
0.015315326 0.32674757 1.3290001
0.0187572 0.3265017 1.3280001
0.022210598 0.3265017 1.3280001
0.025663998 0.3265017 1.3280001
0.029095469 0.32625583 1.327
0.032521743 0.32600999 1.3260001
0.035969943 0.32600999 1.3260001
0.039418139 0.32600999 1.3260001
0.042834006 0.32576412 1.325
0.046279609 0.32576412 1.325
0.049725205 0.32576412 1.325
0.18764888 0.54703784 2.2250001
0.20353268 0.54310411 2.2090001
0.20880337 0.54187477 2.204
0.21434011 0.54138309 2.2020001
0.21976647 0.54064548 2.1990001
0.22261375 0.53376138 2.171
0.22804907 0.5332697 2.1690001
0.23336621 0.53253216 2.1660001
0.23888846 0.53228629 2.1650002
0.24440546 0.53204042 2.164
0.25003284 0.53204042 2.164
0.2557784 0.53228629 2.1650002
0.26297802 0.53548247 2.1780002
0.26876515 0.53572834 2.1790001
0.27443153 0.53572834 2.1790001
0.28022641 0.53597414 2.1800001
0.28576431 0.53572834 2.1790001
0.29129693 0.53548247 2.1780002
0.29696071 0.53548247 2.1780002
0.30262449 0.53548247 2.1780002
0.30828828 0.53548247 2.1780002
0.31395206 0.53548247 2.1780002
0.31976259 0.53572834 2.1790001
0.32542896 0.53572834 2.1790001
0.3313992 0.53622001 2.181
0.33691624 0.53597414 2.1800001
0.34289956 0.53646588 2.1820002
0.34873348 0.53671175 2.1830001
0.35457259 0.53695756 2.184
0.3605819 0.5374493 2.1860001
0.36643404 0.53769517 2.187
0.37229139 0.53794104 2.1880002
0.37815395 0.53818691 2.1890001
0.38296953 0.53695756 2.184
0.38847098 0.53671175 2.1830001
0.39324501 0.53548247 2.1780002
0.40550229 0.54433334 2.214
0.4116312 0.54482514 2.2160001
0.41795886 0.54556268 2.2190001
0.72496253 0.83149755 3.3820002
0.761962 0.86345929 3.5120001
0.78931832 0.88386565 3.5950003
0.81288517 0.89960068 3.6590002
