# .PCD v0.7 - Point Cloud Data file format
VERSION 0.7
FIELDS x y z
SIZE 4 4 4
TYPE F F F
COUNT 1 1 1
WIDTH 1481
HEIGHT 1
VIEWPOINT 0 0 0 1 0 0 0
POINTS 1481
DATA ascii
0.12191372 -0.5318504 1.4360001
0.12582381 -0.5325911 1.4380001
0.12965418 -0.53296143 1.439
0.13339707 -0.53296143 1.439
0.13733059 -0.53370219 1.4410001
0.14107868 -0.53370219 1.4410001
0.1453293 -0.53555405 1.4460001
0.14909041 -0.53555405 1.4460001
0.15274578 -0.53518367 1.4450001
0.15672089 -0.53592443 1.447
0.16037369 -0.53555405 1.4460001
0.1642483 -0.53592443 1.447
0.16812812 -0.53629482 1.4480001
0.17201313 -0.5366652 1.4490001
0.17590334 -0.53703552 1.45
0.17905527 -0.53518367 1.4450001
0.18268727 -0.53481334 1.4440001
0.18631405 -0.53444296 1.4430001
0.18993561 -0.53407258 1.442
0.19341768 -0.53333181 1.4400001
0.19702625 -0.53296143 1.439
0.20062962 -0.5325911 1.4380001
0.20422781 -0.53222072 1.437
0.20782079 -0.5318504 1.4360001
0.21140853 -0.53148001 1.4350001
0.21499109 -0.53110963 1.434
0.21856846 -0.53073925 1.4330001
0.22214061 -0.53036886 1.432
0.22570759 -0.52999854 1.4310001
0.22926933 -0.52962816 1.4300001
0.23282589 -0.52925777 1.429
0.23637725 -0.52888739 1.4280001
0.24009152 -0.52888739 1.4280001
0.24380581 -0.52888739 1.4280001
0.24769342 -0.52925777 1.429
0.25158623 -0.52962816 1.4300001
0.25637695 -0.5318504 1.4360001
0.26047429 -0.5325911 1.4380001
0.26439831 -0.53296143 1.439
0.26832756 -0.53333181 1.4400001
0.27301773 -0.53518367 1.4450001
0.27696779 -0.53555405 1.4460001
0.28072891 -0.53555405 1.4460001
0.28448999 -0.53555405 1.4460001
0.28765306 -0.53444296 1.4430001
0.29140636 -0.53444296 1.4430001
0.29475054 -0.53370219 1.4410001
0.29808435 -0.53296143 1.439
0.3016175 -0.5325911 1.4380001
0.3049331 -0.5318504 1.4360001
0.30823827 -0.53110963 1.434
0.31175062 -0.53073925 1.4330001
0.31525776 -0.53036886 1.432
0.31875971 -0.52999854 1.4310001
0.32225642 -0.52962816 1.4300001
0.32620385 -0.52999854 1.4310001
0.32992595 -0.52999854 1.4310001
0.33364803 -0.52999854 1.4310001
0.33737013 -0.52999854 1.4310001
0.3410922 -0.52999854 1.4310001
0.34481427 -0.52999854 1.4310001
0.34853637 -0.52999854 1.4310001
0.35201228 -0.52962816 1.4300001
0.355483 -0.52925777 1.429
0.35869715 -0.52851701 1.427
0.3619009 -0.5277763 1.4250001
0.36483771 -0.52666521 1.4220001
0.36827722 -0.52629483 1.4210001
0.37118796 -0.52518374 1.4180001
0.37408313 -0.52407259 1.4150001
0.38096723 -0.52851701 1.427
0.38387018 -0.52740592 1.424
0.38730189 -0.52703559 1.4230001
0.39017886 -0.52592444 1.4200001
0.39304021 -0.52481335 1.4170001
0.3928062 -0.51962817 1.4030001
0.40069413 -0.52518374 1.4180001
0.40352687 -0.52407259 1.4150001
0.40231508 -0.51777637 1.3980001
0.40449941 -0.51592445 1.393
0.40665776 -0.5140726 1.388
0.40938127 -0.51296157 1.3850001
0.41208917 -0.51185042 1.3820001
0.40305084 -0.49629489 1.34
0.40774977 -0.49777639 1.3440001
0.40757373 -0.49333194 1.332
0.40702668 -0.48851714 1.319
0.40641201 -0.48370236 1.3060001
0.40133664 -0.47370237 1.279
0.39517167 -0.46259129 1.2490001
0.3926785 -0.45592466 1.2310001
0.38848376 -0.44740614 1.2080001
0.38903227 -0.4444432 1.2
0.38496402 -0.43629509 1.1780001
0.3850635 -0.43296173 1.169
0.38212815 -0.4262951 1.151
0.38311437 -0.42407289 1.1450001
0.38406935 -0.42185068 1.1390001
0.38465336 -0.41925809 1.1320001
0.38554332 -0.41703588 1.126
0.38605705 -0.41444328 1.1190001
0.38653442 -0.41185072 1.1120001
0.38732553 -0.40962848 1.1060001
0.38773265 -0.40703592 1.0990001
0.38810334 -0.40444329 1.092
0.38843763 -0.40185073 1.085
0.3887355 -0.39925814 1.0780001
0.38936016 -0.39703593 1.072
0.38849038 -0.39333221 1.062
0.38830537 -0.39036927 1.054
0.38807878 -0.38740632 1.046
0.38781059 -0.3844434 1.0380001
0.38787693 -0.38185078 1.031
0.38639167 -0.37777674 1.0200001
0.38637477 -0.37518412 1.013
0.38632149 -0.37259156 1.006
0.38661844 -0.37036932 1
0.38688415 -0.3681471 0.99400002
0.38751048 -0.36629525 0.98900002
0.38811082 -0.36444342 0.98400003
0.38868511 -0.36259156 0.97900003
0.38923341 -0.36073974 0.97400004
0.39015794 -0.35925823 0.97000003
0.39106163 -0.35777676 0.96600002
0.39194453 -0.35629532 0.96200007
0.39321664 -0.3551842 0.95900005
0.39364791 -0.35333234 0.95400006
0.39446837 -0.35185087 0.95000005
0.39568582 -0.35073975 0.94700003
0.39688775 -0.34962866 0.94400007
0.398074 -0.34851754 0.94100004
0.39924467 -0.34740642 0.93800002
0.400828 -0.34666571 0.93600005
0.40240088 -0.34592494 0.93400002
0.40396339 -0.34518421 0.93200004
0.40551549 -0.3444435 0.93000007
0.4074958 -0.34407309 0.92900002
0.40947092 -0.34370273 0.92800003
0.41144085 -0.34333238 0.92700005
0.41340557 -0.342962 0.92600006
0.41581413 -0.342962 0.92600006
0.4182227 -0.342962 0.92600006
0.42153972 -0.34370273 0.92800003
0.42486718 -0.3444435 0.93000007
0.42820507 -0.34518421 0.93200004
0.4315533 -0.34592494 0.93400002
0.45977458 -0.36444342 0.98400003
0.4642134 -0.36592489 0.98800004
0.46867305 -0.36740637 0.99200004
0.47410357 -0.36962858 0.99800003
0.47717711 -0.36999896 0.99900007
0.47881499 -0.36925822 0.99700004
0.48092538 -0.36888787 0.99600005
0.48108876 -0.36703601 0.99100006
0.4841544 -0.36740637 0.99200004
0.484772 -0.36592489 0.98800004
0.48438227 -0.36370268 0.98200005
0.48594475 -0.36296195 0.98000002
0.48500451 -0.36036935 0.97300005
0.48853746 -0.36111009 0.97500002
0.48855516 -0.35925823 0.97000003
-1.1372353 -0.79070187 2.1500001
-1.1316431 -0.79070187 2.1500001
-1.1260508 -0.79070187 2.1500001
-1.1188952 -0.78959852 2.1470001
-1.1127923 -0.78923082 2.1460001
-1.1066945 -0.78886306 2.1450002
-1.1011153 -0.78886306 2.1450002
-1.0960468 -0.78923082 2.1460001
-1.0945299 -0.79217291 2.154
-1.0869052 -0.79070187 2.1500001
-1.0853364 -0.79364395 2.158
-1.0802238 -0.79401177 2.1590002
-1.0761013 -0.79511511 2.1620002
-1.070973 -0.79548287 2.1630001
-1.0722424 -0.80063158 2.177
-1.0665799 -0.80063158 2.177
-1.0594555 -0.79952824 2.174
-1.0547704 -0.80026382 2.1760001
-1.0495926 -0.80063158 2.177
-1.0448892 -0.80136716 2.1790001
-1.0406524 -0.80247045 2.1820002
-1.0359255 -0.80320597 2.184
-1.03166 -0.80430925 2.187
-1.031132 -0.80835479 2.1980002
-1.0244818 -0.80761921 2.1960001
-1.018306 -0.80725145 2.1950002
-1.0112127 -0.80614817 2.1920002
-1.0036764 -0.80467707 2.1880002
-1.0011781 -0.80725145 2.1950002
-0.99456179 -0.80651587 2.1930001
-0.9884069 -0.80614817 2.1920002
-0.98225707 -0.80578041 2.1910002
-0.97611243 -0.80541259 2.1900001
-0.97041619 -0.80541259 2.1900001
-0.96516043 -0.80578041 2.1910002
-0.96033734 -0.80651587 2.1930001
-0.95506859 -0.80688363 2.194
-0.95022732 -0.80761921 2.1960001
-0.94580579 -0.8087225 2.1990001
-0.94094121 -0.80945808 2.2010002
-0.93606603 -0.81019354 2.2030001
-0.9311806 -0.81092912 2.2050002
-0.92628467 -0.81166464 2.207
-0.92137843 -0.81240016 2.2090001
-0.91604716 -0.81276792 2.21
-0.91029894 -0.81276792 2.21
-0.90414137 -0.81240016 2.2090001
-0.89798898 -0.81203246 2.2080002
-0.89103359 -0.81092912 2.2050002
-0.88409382 -0.80982584 2.2020001
-0.87716961 -0.8087225 2.1990001
-0.87026107 -0.80761921 2.1960001
-0.86258078 -0.80578041 2.1910002
-0.85101545 -0.80026382 2.1760001
-0.84496719 -0.79989612 2.1750002
-0.83853811 -0.79916054 2.1730001
-0.83211941 -0.79842496 2.171
-0.82571125 -0.7976895 2.1690001
-0.81931341 -0.79695392 2.1670001
-0.81292599 -0.7962184 2.1650002
-0.80692184 -0.79585057 2.164
-0.80092293 -0.79548287 2.1630001
-0.79492921 -0.79511511 2.1620002
-0.78967083 -0.79548287 2.1630001
-0.7840448 -0.79548287 2.1630001
-0.77913851 -0.7962184 2.1650002
-0.77172089 -0.79437953 2.1600001
-0.76752132 -0.79585057 2.164
-0.76259691 -0.79658616 2.1660001
-0.75801146 -0.7976895 2.1690001
-0.7537573 -0.79916054 2.1730001
-0.74879384 -0.79989612 2.1750002
-0.74621153 -0.80320597 2.184
-0.74053091 -0.80320597 2.184
-0.73316795 -0.80136716 2.1790001
-0.72716641 -0.8009994 2.1780002
-0.72150135 -0.8009994 2.1780002
-0.71485031 -0.79989612 2.1750002
-0.70951903 -0.80026382 2.1760001
-0.70450616 -0.8009994 2.1780002
-0.69755763 -0.79952824 2.174
-0.69222122 -0.79989612 2.1750002
-0.68467003 -0.7976895 2.1690001
-0.67840225 -0.79695392 2.1670001
-0.67121351 -0.79511511 2.1620002
-0.66312712 -0.79217291 2.154
-0.66057712 -0.79585057 2.164
-0.6546458 -0.79548287 2.1630001
-0.64871973 -0.79511511 2.1620002
-0.64309633 -0.79511511 2.1620002
-0.63747281 -0.79511511 2.1620002
-0.63184941 -0.79511511 2.1620002
-0.62535703 -0.79401177 2.1590002
-0.61945426 -0.79364395 2.158
-0.6146946 -0.79474729 2.161
-0.59836358 -0.78077215 2.1230001
-0.58893216 -0.77562338 2.1090002
-0.57902014 -0.76973909 2.0930002
-0.56480676 -0.75797045 2.0610001
-0.55808878 -0.75613159 2.056
-0.54252499 -0.74215645 2.0180001
-0.52156788 -0.72045809 1.9590001
-0.38010827 -0.55202019 1.501
-0.37520161 -0.55054915 1.4970001
-0.36907551 -0.54723924 1.488
-0.36471432 -0.54650372 1.4860001
-0.36060631 -0.5461359 1.485
-0.35626331 -0.54540038 1.483
-0.352406 -0.54540038 1.483
-0.34807861 -0.54466486 1.4810001
-0.34399405 -0.5442971 1.48
-0.33968484 -0.54356152 1.478
-0.33538607 -0.542826 1.4760001
-0.33064845 -0.54135495 1.4720001
-0.32593161 -0.53988385 1.4680001
-0.3212356 -0.53841281 1.4640001
-0.31634358 -0.53657395 1.4590001
-0.31147754 -0.53473514 1.4540001
-0.30663753 -0.53289628 1.4490001
-0.30182356 -0.53105748 1.4440001
-0.29724196 -0.52958637 1.4400001
-0.29247737 -0.52774751 1.4350001
-0.28814125 -0.52664423 1.432
-0.28382072 -0.52554089 1.429
-0.27990785 -0.52517313 1.4280001
-0.27774087 -0.52811527 1.4360001
-0.27381495 -0.52774751 1.4350001
-0.27027068 -0.52811527 1.4360001
-0.26653558 -0.52811527 1.4360001
-0.26261747 -0.52774751 1.4350001
-0.258885 -0.52774751 1.4350001
-0.25515249 -0.52774751 1.4350001
-0.25159523 -0.52811527 1.4360001
-0.24768753 -0.52774751 1.4350001
-0.24412505 -0.52811527 1.4360001
-0.24022254 -0.52774751 1.4350001
-0.23649007 -0.52774751 1.4350001
-0.23275757 -0.52774751 1.4350001
-0.22710991 -0.52333432 1.4230001
-0.22419362 -0.52517313 1.4280001
-0.22032492 -0.52480537 1.427
-0.21615787 -0.52370203 1.424
-0.2123048 -0.52333432 1.4230001
-0.20860352 -0.52333432 1.4230001
-0.20490225 -0.52333432 1.4230001
-0.20049401 -0.52149546 1.4180001
-0.19680573 -0.52149546 1.4180001
-0.19298127 -0.5211277 1.4170001
-0.1892956 -0.5211277 1.4170001
-0.18560992 -0.5211277 1.4170001
-0.18192427 -0.5211277 1.4170001
-0.17836438 -0.52149546 1.4180001
-0.17479929 -0.52186322 1.419
-0.171229 -0.52223098 1.4200001
-0.1677715 -0.5229665 1.4220001
-0.16418821 -0.52333432 1.4230001
-0.16059971 -0.52370203 1.424
-0.15700601 -0.52406985 1.4250001
-0.15265405 -0.52186322 1.419
-0.14990799 -0.52517313 1.4280001
-0.14619371 -0.52517313 1.4280001
-0.1425792 -0.52554089 1.429
-0.13886231 -0.52554089 1.429
-0.13514544 -0.52554089 1.429
-0.13142855 -0.52554089 1.429
-0.12762231 -0.52517313 1.4280001
-0.12373448 -0.52443761 1.4260001
-0.11994123 -0.52406985 1.4250001
-0.11615319 -0.52370203 1.424
-0.11237034 -0.52333432 1.4230001
-0.1085927 -0.5229665 1.4220001
-0.10489403 -0.5229665 1.4220001
-0.10098185 -0.52186322 1.419
-0.097770929 -0.52443761 1.4260001
-0.093798004 -0.5229665 1.4220001
-0.090099327 -0.5229665 1.4220001
-0.086461417 -0.52333432 1.4230001
-0.083516203 -0.52811527 1.4360001
-0.079558879 -0.52664423 1.432
-0.075834192 -0.52664423 1.432
-0.072159864 -0.52701199 1.4330001
-0.068480335 -0.52737975 1.434
-0.064795598 -0.52774751 1.4350001
-0.061063115 -0.52774751 1.4350001
-0.05729067 -0.52737975 1.434
-0.053598139 -0.52774751 1.4350001
-0.049865648 -0.52774751 1.4350001
-0.046133157 -0.52774751 1.4350001
-0.042400673 -0.52774751 1.4350001
-0.03869513 -0.52811527 1.4360001
-0.034960043 -0.52811527 1.4360001
-0.031224951 -0.52811527 1.4360001
-0.027509004 -0.52848303 1.437
-0.023771314 -0.52848303 1.437
-0.020047566 -0.52885085 1.4380001
-0.016318614 -0.52921855 1.439
-0.01258446 -0.52958637 1.4400001
-0.0088451048 -0.52995414 1.4410001
-0.0051005478 -0.5303219 1.442
-0.0013507882 -0.53068966 1.4430001
0.0024025084 -0.53068966 1.4430001
0.0061600716 -0.53105748 1.4440001
0.0099091018 -0.53068966 1.4430001
0.013662398 -0.53068966 1.4430001
0.017415695 -0.53068966 1.4430001
0.021154322 -0.5303219 1.442
0.024974104 -0.531793 1.4460001
0.028476864 -0.52701199 1.4330001
0.032181676 -0.52664423 1.432
0.03590636 -0.52664423 1.432
0.039631046 -0.52664423 1.432
0.04341628 -0.52737975 1.434
0.047146171 -0.52737975 1.434
0.050876055 -0.52737975 1.434
0.054605946 -0.52737975 1.434
0.058173109 -0.52590865 1.4300001
0.061892595 -0.52590865 1.4300001
0.065657966 -0.52627647 1.4310001
0.069477014 -0.52701199 1.4330001
0.073510803 -0.52921855 1.439
0.077307381 -0.52958637 1.4400001
0.081052877 -0.52958637 1.4400001
0.084798366 -0.52958637 1.4400001
0.088543862 -0.52958637 1.4400001
0.091584362 -0.52554089 1.429
0.095301256 -0.52554089 1.429
0.099087425 -0.52590865 1.4300001
0.1028788 -0.52627647 1.4310001
0.1063774 -0.52517313 1.4280001
0.11024588 -0.52590865 1.4300001
0.11404506 -0.52627647 1.4310001
0.11801402 -0.52737975 1.434
0.12182882 -0.52774751 1.4350001
0.12608631 -0.52995414 1.4410001
0.12956409 -0.52885085 1.4380001
0.13339707 -0.52921855 1.439
0.13723528 -0.52958637 1.4400001
0.14147028 -0.53142518 1.4450001
0.1453293 -0.531793 1.4460001
0.14898729 -0.53142518 1.4450001
0.15285149 -0.531793 1.4460001
0.15661259 -0.531793 1.4460001
0.16037369 -0.531793 1.4460001
0.1642483 -0.5321607 1.447
0.16812812 -0.53252852 1.4480001
0.17201313 -0.53289628 1.4490001
0.17590334 -0.53326404 1.45
0.17979877 -0.5336318 1.4510001
0.18357287 -0.5336318 1.4510001
0.18747608 -0.53399956 1.452
0.18993561 -0.5303219 1.442
0.193552 -0.52995414 1.4410001
0.19716318 -0.52958637 1.4400001
0.20076914 -0.52921855 1.439
0.20436993 -0.52885085 1.4380001
0.20796549 -0.52848303 1.437
0.21155587 -0.52811527 1.4360001
0.21529096 -0.52811527 1.4360001
0.2188735 -0.52774751 1.4350001
0.222606 -0.52774751 1.4350001
0.22618076 -0.52737975 1.434
0.22975032 -0.52701199 1.4330001
0.23347761 -0.52701199 1.4330001
0.23703937 -0.52664423 1.432
0.24076404 -0.52664423 1.432
0.24448873 -0.52664423 1.432
0.24821343 -0.52664423 1.432
0.25211403 -0.52701199 1.4330001
0.25691253 -0.52921855 1.439
0.26083654 -0.52958637 1.4400001
0.26494953 -0.5303219 1.442
0.26870024 -0.5303219 1.442
0.27358454 -0.53252852 1.4480001
0.27735087 -0.53252852 1.4480001
0.28111717 -0.53252852 1.4480001
0.28488347 -0.53252852 1.4480001
0.28805172 -0.53142518 1.4450001
0.2916083 -0.53105748 1.4440001
0.29515964 -0.53068966 1.4430001
0.29870579 -0.5303219 1.442
0.302037 -0.52958637 1.4400001
0.30557013 -0.52921855 1.439
0.30888313 -0.52848303 1.437
0.31240326 -0.52811527 1.4360001
0.31591821 -0.52774751 1.4350001
0.31965071 -0.52774751 1.4350001
0.32315782 -0.52737975 1.434
0.32711568 -0.52774751 1.4350001
0.33084816 -0.52774751 1.4350001
0.33458063 -0.52774751 1.4350001
0.33831313 -0.52774751 1.4350001
0.34204563 -0.52774751 1.4350001
0.34577811 -0.52774751 1.4350001
0.34926704 -0.52737975 1.434
0.35299692 -0.52737975 1.434
0.35622928 -0.52664423 1.432
0.35970262 -0.52627647 1.4310001
0.36291674 -0.52554089 1.429
0.36612052 -0.52480537 1.427
0.36931387 -0.52406985 1.4250001
0.37537622 -0.52737975 1.434
0.37884179 -0.52701199 1.4330001
0.38256907 -0.52701199 1.4330001
0.38575721 -0.52627647 1.4310001
0.38920709 -0.52590865 1.4300001
0.39237705 -0.52517313 1.4280001
0.3955366 -0.52443761 1.4260001
0.40064552 -0.52627647 1.4310001
0.40238959 -0.52370203 1.424
0.40523794 -0.5225988 1.4210001
0.40922177 -0.5229665 1.4220001
0.40449941 -0.51230121 1.393
0.40695074 -0.51083016 1.3890001
0.40967682 -0.50972688 1.386
0.41238734 -0.50862354 1.383
0.41628537 -0.50899136 1.3840001
0.40744638 -0.49391282 1.3430001
0.41002163 -0.4928095 1.34
0.40733528 -0.48545417 1.3200001
0.40641201 -0.48030543 1.3060001
0.40102288 -0.47000793 1.2780001
0.39453888 -0.45860708 1.2470001
0.39204052 -0.45198727 1.2290001
0.38719741 -0.44279307 1.2040001
0.38805968 -0.44021866 1.197
0.38398364 -0.43212777 1.1750001
0.38407528 -0.42881784 1.166
0.38246018 -0.4236691 1.1520001
0.38344896 -0.42146248 1.146
0.38440657 -0.41925588 1.1400001
0.38533294 -0.41704926 1.1340001
0.38622808 -0.41484264 1.128
0.38674706 -0.41226828 1.1210001
0.38757721 -0.41006166 1.115
0.38837615 -0.40785506 1.1090001
0.38879102 -0.40528065 1.102
0.389525 -0.40307409 1.0960001
0.38986969 -0.4004997 1.0890001
0.39017791 -0.39792529 1.082
0.39081302 -0.39571872 1.0760001
0.3888562 -0.39093772 1.0630001
0.38830537 -0.38762778 1.054
0.38807878 -0.38468564 1.046
0.38781059 -0.38174352 1.0380001
0.38787693 -0.37916911 1.031
0.38525522 -0.37402037 1.0170001
0.38523051 -0.37144595 1.01
0.38555348 -0.36923939 1.0040001
0.38584521 -0.36703277 0.99800003
0.38649493 -0.36519393 0.99300003
0.38711867 -0.36335507 0.98800004
0.38771638 -0.36151624 0.98300004
0.38828811 -0.3596774 0.97800004
0.38923341 -0.35820633 0.97400004
0.39015794 -0.35673526 0.97000003
0.3906568 -0.3548964 0.96500003
0.39153707 -0.35342532 0.96100003
0.39280659 -0.35232204 0.95800006
0.39323527 -0.35048321 0.95300007
0.39405313 -0.34901214 0.94900006
0.39485019 -0.34754106 0.94500005
0.39604688 -0.34643775 0.94200003
0.39722797 -0.34533444 0.93900007
0.39839342 -0.34423113 0.93600005
0.39997151 -0.34349558 0.93400002
0.40153921 -0.34276006 0.93200004
0.40309653 -0.34202453 0.93000007
0.40464342 -0.34128898 0.92800003
0.4061799 -0.34055346 0.92600006
0.40814722 -0.3401857 0.92500007
0.41010931 -0.33981791 0.92400002
0.41206625 -0.33945015 0.92300004
0.41446698 -0.33945015 0.92300004
0.41686776 -0.33945015 0.92300004
0.41972274 -0.33981791 0.92400002
0.42303979 -0.34055346 0.92600006
0.42590782 -0.34092122 0.92700005
0.42878103 -0.34128898 0.92800003
0.46280387 -0.36225179 0.98500007
0.46300361 -0.36041293 0.98000002
0.46602768 -0.36078072 0.98100007
0.46857932 -0.36078072 0.98100007
0.4744927 -0.36335507 0.98800004
0.47802824 -0.36409062 0.99000007
0.47720507 -0.36151624 0.98300004
0.47927383 -0.36114848 0.98200005
0.4788841 -0.35894188 0.97600007
0.48240924 -0.3596774 0.97800004
0.48396131 -0.35894188 0.97600007
0.48600143 -0.35857409 0.97500002
0.48603684 -0.3548964 0.96500003
-1.1388222 -0.78620517 2.1530001
-1.1337484 -0.78657031 2.154
-1.1302407 -0.78803092 2.158
-1.1204586 -0.78510964 2.1500001
-1.1143478 -0.7847445 2.1490002
-1.1087582 -0.7847445 2.1490002
-1.1031686 -0.7847445 2.1490002
-1.0980897 -0.78510964 2.1500001
-1.0930055 -0.78547478 2.151
-1.0889273 -0.78657031 2.154
-1.0843306 -0.78730065 2.1560001
-1.0797234 -0.78803092 2.158
-1.0761013 -0.78949165 2.1620002
-1.070973 -0.78985685 2.1630001
-1.0732275 -0.79569954 2.1790001
-1.0646203 -0.79350847 2.1730001
-1.0604302 -0.794604 2.1760001
-1.0557399 -0.7953344 2.1780002
-1.0500748 -0.7953344 2.1780002
-1.0453687 -0.79606467 2.1800001
-1.0411292 -0.79716015 2.1830001
-1.0363998 -0.79789054 2.1850002
-1.0321318 -0.79898602 2.1880002
-1.0320702 -0.80336797 2.2
-1.0254148 -0.8026377 2.1980002
-1.0201616 -0.80300283 2.1990001
-1.0130581 -0.80190736 2.1960001
-1.0055113 -0.80044669 2.1920002
-1.0039148 -0.80373323 2.2010002
-0.99728292 -0.80300283 2.1990001
-0.99066138 -0.8022725 2.197
-0.98449862 -0.80190736 2.1960001
-0.97834104 -0.80154222 2.1950002
-0.97218859 -0.80117697 2.194
-0.96692246 -0.80154222 2.1950002
-0.962089 -0.8022725 2.197
-0.95680988 -0.8026377 2.1980002
-0.95195812 -0.80336797 2.2
-0.94709611 -0.80409837 2.2020001
-0.94222361 -0.80482864 2.204
-0.93734074 -0.80555898 2.2060001
-0.93244749 -0.80628937 2.2080002
-0.92754382 -0.80701965 2.21
-0.92262977 -0.80775005 2.2120001
-0.91729069 -0.80811518 2.2130001
-0.91153461 -0.80811518 2.2130001
-0.90536928 -0.80775005 2.2120001
-0.89880228 -0.80701965 2.21
-0.89184171 -0.80592418 2.207
-0.88489676 -0.80482864 2.204
-0.87796742 -0.80373323 2.2010002
-0.8710537 -0.8026377 2.1980002
-0.86336815 -0.80081183 2.1930001
-0.85218877 -0.79569954 2.1790001
-0.84613264 -0.7953344 2.1780002
-0.83969581 -0.794604 2.1760001
-0.8332693 -0.79387361 2.174
-0.82685333 -0.79314333 2.1720002
-0.82044768 -0.792413 2.1700001
-0.81367695 -0.79131746 2.1670001
-0.80766761 -0.79095232 2.1660001
-0.80129319 -0.79022199 2.164
-0.79529685 -0.78985685 2.1630001
-0.78967083 -0.78985685 2.1630001
-0.78150749 -0.78730065 2.1560001
-0.77625942 -0.78766578 2.1570001
-0.77100629 -0.78803092 2.158
-0.76610267 -0.78876132 2.1600001
-0.76189274 -0.79022199 2.164
-0.75731248 -0.79131746 2.1670001
-0.75271666 -0.792413 2.1700001
-0.75017095 -0.79569954 2.1790001
-0.74484485 -0.79606467 2.1800001
-0.73883557 -0.79569954 2.1790001
-0.73215854 -0.794604 2.1760001
-0.72583085 -0.79387361 2.174
-0.72017622 -0.79387361 2.174
-0.71353555 -0.79277813 2.171
-0.70658445 -0.79131746 2.1670001
-0.70256537 -0.79314333 2.1720002
-0.69595331 -0.79204786 2.1690001
-0.68967509 -0.79131746 2.1670001
-0.68340737 -0.79058719 2.1650002
-0.67746305 -0.79022199 2.164
-0.66997159 -0.78803092 2.158
-0.66220355 -0.78547478 2.151
-0.65630352 -0.78510964 2.1500001
-0.65040863 -0.7847445 2.1490002
-0.64781958 -0.78839618 2.1590002
-0.64220393 -0.78839618 2.1590002
-0.63658828 -0.78839618 2.1590002
-0.63097262 -0.78839618 2.1590002
-0.62448806 -0.78730065 2.1560001
-0.61859316 -0.78693551 2.1550002
-0.61412573 -0.78839618 2.1590002
-0.59695429 -0.77342427 2.118
-0.58809441 -0.76904231 2.1060002
-0.57625371 -0.76064348 2.0830002
-0.57001364 -0.75954795 2.0800002
-0.55836028 -0.75114912 2.0570002
-0.55300993 -0.75114912 2.0570002
-0.37884209 -0.54629022 1.4960001
-0.3744497 -0.54555994 1.4940001
-0.36932355 -0.54373407 1.4890001
-0.36495978 -0.54300374 1.4870001
-0.36060631 -0.5422734 1.485
-0.35650358 -0.54190826 1.4840001
-0.352406 -0.54154307 1.483
-0.34831363 -0.54117793 1.4820001
-0.34399405 -0.54044753 1.48
-0.33968484 -0.5397172 1.478
-0.33515882 -0.53862172 1.475
-0.33064845 -0.53752625 1.4720001
-0.32593161 -0.53606558 1.4680001
-0.32101616 -0.53423971 1.4630001
-0.31612673 -0.5324139 1.4580001
-0.31126332 -0.53058803 1.4530001
-0.30621427 -0.52839702 1.447
-0.30140549 -0.52657121 1.442
-0.29662269 -0.52474535 1.437
-0.29206976 -0.52328473 1.4330001
-0.28773883 -0.5221892 1.4300001
-0.28342348 -0.52109373 1.427
-0.27931979 -0.52036339 1.4250001
-0.27541989 -0.51999819 1.424
-0.27381495 -0.52401507 1.4350001
-0.27027068 -0.52438021 1.4360001
-0.26653558 -0.52438021 1.4360001
-0.26280048 -0.52438021 1.4360001
-0.25906542 -0.52438021 1.4360001
-0.25550812 -0.52474535 1.437
-0.25194561 -0.52511054 1.4380001
-0.24820535 -0.52511054 1.4380001
-0.24463505 -0.52547568 1.439
-0.24089214 -0.52547568 1.439
-0.23517166 -0.52109373 1.427
-0.23162217 -0.52145886 1.4280001
-0.22854629 -0.52291954 1.432
-0.2248216 -0.52291954 1.432
-0.22078812 -0.5221892 1.4300001
-0.21691684 -0.521824 1.429
-0.21305077 -0.52145886 1.4280001
-0.20918988 -0.52109373 1.427
-0.20490225 -0.51963305 1.4230001
-0.20105956 -0.51926786 1.4220001
-0.19736089 -0.51926786 1.4220001
-0.19352604 -0.51890272 1.4210001
-0.18982996 -0.51890272 1.4210001
-0.1860029 -0.51853752 1.4200001
-0.18230943 -0.51853752 1.4200001
-0.17874174 -0.51890272 1.4210001
-0.17504567 -0.51890272 1.4210001
-0.17147018 -0.51926786 1.4220001
-0.16788949 -0.51963305 1.4230001
-0.16441897 -0.52036339 1.4250001
-0.1600358 -0.51817232 1.419
-0.15634494 -0.51817232 1.419
-0.15276164 -0.51853752 1.4200001
-0.15001296 -0.521824 1.429
-0.14639847 -0.5221892 1.4300001
-0.14267898 -0.5221892 1.4300001
-0.1389595 -0.5221892 1.4300001
-0.13524002 -0.5221892 1.4300001
-0.13170448 -0.52291954 1.432
-0.12771167 -0.521824 1.429
-0.12399479 -0.521824 1.429
-0.12019374 -0.52145886 1.4280001
-0.11639789 -0.52109373 1.427
-0.11252827 -0.52036339 1.4250001
-0.1088218 -0.52036339 1.4250001
-0.10504156 -0.51999819 1.424
-0.10112419 -0.51890272 1.4210001
-0.097633801 -0.51999819 1.424
-0.093929924 -0.51999819 1.424
-0.090289414 -0.52036339 1.4250001
-0.086582936 -0.52036339 1.4250001
-0.083690673 -0.52547568 1.439
-0.080003344 -0.52584088 1.4400001
-0.076363765 -0.52657121 1.442
-0.072159864 -0.52328473 1.4330001
-0.068480335 -0.52364987 1.434
-0.06475044 -0.52364987 1.434
-0.061063115 -0.52401507 1.4350001
-0.05729067 -0.52364987 1.434
-0.053598139 -0.52401507 1.4350001
-0.049865648 -0.52401507 1.4350001
-0.046133157 -0.52401507 1.4350001
-0.042400673 -0.52401507 1.4350001
-0.038668185 -0.52401507 1.4350001
-0.034960043 -0.52438021 1.4360001
-0.031224951 -0.52438021 1.4360001
-0.027509004 -0.52474535 1.437
-0.023787856 -0.52511054 1.4380001
-0.020047566 -0.52511054 1.4380001
-0.016318614 -0.52547568 1.439
-0.01258446 -0.52584088 1.4400001
-0.0088451048 -0.52620608 1.4410001
-0.005104085 -0.52693641 1.4430001
-0.0013507882 -0.52693641 1.4430001
0.0024041734 -0.52730155 1.4440001
0.006164337 -0.52766669 1.4450001
0.0099159693 -0.52730155 1.4440001
0.013671867 -0.52730155 1.4440001
0.017415695 -0.52693641 1.4430001
0.021154322 -0.52657121 1.442
0.024991373 -0.52839702 1.447
0.028496735 -0.52364987 1.434
0.032204151 -0.52328473 1.4330001
0.035956509 -0.52364987 1.434
0.039741747 -0.52438021 1.4360001
0.04350711 -0.52474535 1.437
0.04721193 -0.52438021 1.4360001
0.050947014 -0.52438021 1.4360001
0.054644026 -0.52401507 1.4350001
0.058661275 -0.52657121 1.442
0.062411971 -0.52657121 1.442
0.066162668 -0.52657121 1.442
0.069961846 -0.52693641 1.4430001
0.07371515 -0.52693641 1.4430001
0.07746844 -0.52693641 1.4430001
0.081221737 -0.52693641 1.4430001
0.084975034 -0.52693641 1.4430001
0.088666841 -0.52657121 1.442
0.092481628 -0.52693641 1.4430001
0.096101552 -0.52620608 1.4410001
0.099849641 -0.52620608 1.4410001
0.10352584 -0.52584088 1.4400001
0.10719683 -0.52547568 1.439
0.11086264 -0.52511054 1.4380001
0.11396536 -0.5221892 1.4300001
0.11784943 -0.52291954 1.432
0.12174392 -0.52364987 1.434
0.1259988 -0.52584088 1.4400001
0.12956409 -0.52511054 1.4380001
0.13339707 -0.52547568 1.439
0.1376165 -0.52730155 1.4440001
0.14147028 -0.52766669 1.4450001
0.14502779 -0.52693641 1.4430001
0.14888419 -0.52730155 1.4440001
0.15316862 -0.52912742 1.4490001
0.15693752 -0.52912742 1.4490001
0.16081733 -0.52949256 1.45
0.16458884 -0.52949256 1.45
0.16847645 -0.52985775 1.4510001
0.17236926 -0.53022289 1.452
0.17614596 -0.53022289 1.452
0.18017051 -0.53095323 1.4540001
0.18395242 -0.53095323 1.4540001
0.1876052 -0.53058803 1.4530001
0.19151622 -0.53095323 1.4540001
0.19368632 -0.52657121 1.442
0.19730011 -0.52620608 1.4410001
0.20090866 -0.52584088 1.4400001
0.20451204 -0.52547568 1.439
0.20811023 -0.52511054 1.4380001
0.21185051 -0.52511054 1.4380001
0.2155908 -0.52511054 1.4380001
0.21933109 -0.52511054 1.4380001
0.22307138 -0.52511054 1.4380001
0.22681168 -0.52511054 1.4380001
0.23039162 -0.52474535 1.437
0.23412932 -0.52474535 1.437
0.23786701 -0.52474535 1.437
0.24143657 -0.52438021 1.4360001
0.24517167 -0.52438021 1.4360001
0.24890678 -0.52438021 1.4360001
0.25264186 -0.52438021 1.4360001
0.25744814 -0.52657121 1.442
0.26137996 -0.52693641 1.4430001
0.26531702 -0.52730155 1.4440001
0.26925924 -0.52766669 1.4450001
0.27396244 -0.52949256 1.45
0.27773395 -0.52949256 1.45
0.28150547 -0.52949256 1.45
0.28527695 -0.52949256 1.45
0.28845042 -0.52839702 1.447
0.29221413 -0.52839702 1.447
0.29556873 -0.52766669 1.4450001
0.2991201 -0.52730155 1.4440001
0.3024565 -0.52657121 1.442
0.30620718 -0.52657121 1.442
0.30952799 -0.52584088 1.4400001
0.3130559 -0.52547568 1.439
0.31679881 -0.52547568 1.439
0.32031897 -0.52511054 1.4380001
0.32405925 -0.52511054 1.4380001
0.32802749 -0.52547568 1.439
0.33177039 -0.52547568 1.439
0.33551326 -0.52547568 1.439
0.33925617 -0.52547568 1.439
0.34299907 -0.52547568 1.439
0.34674194 -0.52547568 1.439
0.3502413 -0.52511054 1.4380001
0.35398158 -0.52511054 1.4380001
0.35722435 -0.52438021 1.4360001
0.36070806 -0.52401507 1.4350001
0.36393261 -0.52328473 1.4330001
0.36714682 -0.5225544 1.4310001
0.37009138 -0.52145886 1.4280001
0.37694687 -0.52584088 1.4400001
0.38042799 -0.52547568 1.439
0.38417086 -0.52547568 1.439
0.38737461 -0.52474535 1.437
0.39084014 -0.52438021 1.4360001
0.39430046 -0.52401507 1.4350001
0.39775556 -0.52364987 1.434
0.40176544 -0.52401507 1.4350001
0.40408507 -0.5221892 1.4300001
0.40694898 -0.52109373 1.427
0.41037288 -0.52072853 1.4260001
0.41408199 -0.52072853 1.4260001
0.41691211 -0.51963305 1.4230001
0.41972664 -0.51853752 1.4200001
0.42252558 -0.51744205 1.4170001
0.41598454 -0.50502634 1.383
0.41927841 -0.5046612 1.3820001
0.41002163 -0.48932415 1.34
0.41072974 -0.48603764 1.3310001
0.40641201 -0.47690848 1.3060001
0.40039527 -0.46595344 1.276
0.3942225 -0.45499843 1.2460001
0.38725567 -0.44331309 1.2140001
0.38591102 -0.43820074 1.2
0.38287261 -0.43126258 1.1810001
0.38333005 -0.42834124 1.1730001
0.3834165 -0.4250547 1.164
0.38279215 -0.42103785 1.153
0.38411814 -0.41921201 1.148
0.38474372 -0.41665587 1.141
0.38601255 -0.41483003 1.136
0.38691288 -0.41263899 1.13
0.38778207 -0.41044801 1.1240001
0.38862002 -0.40825701 1.118
0.38942677 -0.40606603 1.1120001
0.39020228 -0.40387502 1.1060001
0.3905912 -0.40131885 1.0990001
0.39130169 -0.39912784 1.0930001
0.39162037 -0.39657167 1.0860001
0.39226586 -0.39438066 1.08
0.3888562 -0.38817284 1.0630001
0.38830537 -0.38488629 1.054
0.38807878 -0.38196495 1.046
0.38818416 -0.37940881 1.039
0.38825315 -0.37685263 1.0320001
0.38411877 -0.37027961 1.0140001
0.38484913 -0.3684538 1.0090001
0.38516945 -0.36626276 1.003
0.38545859 -0.36407179 0.99700004
0.38610572 -0.36224595 0.99200004
0.38672686 -0.36042011 0.98700005
0.38732198 -0.35859427 0.98200005
0.38789108 -0.35676843 0.97700006
0.38883379 -0.35530776 0.97300005
0.38975573 -0.35384709 0.96900004
0.3906568 -0.35238642 0.96500003
0.39153707 -0.35092574 0.96100003
0.39239657 -0.34946507 0.95700002
0.39282262 -0.34763923 0.95200002
0.3936379 -0.34617859 0.94800007
0.39443237 -0.34471792 0.94400007
0.39520603 -0.34325725 0.94000006
0.39638188 -0.34216174 0.93700004
0.39754212 -0.34106624 0.93400002
0.39911506 -0.34033591 0.93200004
0.40067756 -0.33960557 0.93000007
0.40222964 -0.33887523 0.92800003
0.40377134 -0.3381449 0.92600006
0.40530258 -0.33741456 0.92400002
0.40726471 -0.33704939 0.92300004
0.40877783 -0.33631906 0.92100006
0.4107269 -0.33595389 0.92000002
0.41311985 -0.33595389 0.92000002
0.41506118 -0.33558872 0.91900003
0.41790578 -0.33595389 0.92000002
0.42075557 -0.33631906 0.92100006
0.4236106 -0.33668423 0.92200005
0.42693281 -0.33741456 0.92400002
0.42840689 -0.33668423 0.92200005
0.46080208 -0.35421225 0.97000003
0.46332508 -0.35421225 0.97000003
0.46440735 -0.35311675 0.96700007
0.46512014 -0.34800443 0.95300007
0.47005221 -0.34983027 0.95800006
0.47599682 -0.35238642 0.96500003
0.4775151 -0.35165608 0.96300006
0.4800199 -0.35165608 0.96300006
0.47951832 -0.34946507 0.95700002
0.48402217 -0.35092574 0.96100003
-1.1398801 -0.78133023 2.1550002
-1.1369065 -0.78314304 2.1600001
-1.1312882 -0.78314304 2.1600001
-1.1251489 -0.78278047 2.1590002
-1.1159035 -0.78024256 2.1520002
-1.1123698 -0.7816928 2.1560001
-1.1047087 -0.78024256 2.1520002
-1.1026864 -0.78278047 2.1590002
-1.0950382 -0.78133023 2.1550002
-1.090444 -0.78205532 2.1570001
-1.0863423 -0.78314304 2.1600001
-1.0817249 -0.78386819 2.1620002
-1.0810786 -0.78749382 2.1720002
-1.0759244 -0.7878564 2.1730001
-1.0776603 -0.79329491 2.1880002
-1.0656002 -0.78858155 2.1750002
-1.0609175 -0.78930664 2.177
-1.0562246 -0.79003179 2.1790001
-1.0655028 -0.80127132 2.21
-1.0611931 -0.80235904 2.2130001
-1.0559139 -0.80272156 2.214
-1.0501552 -0.80272156 2.214
-1.0448682 -0.80308419 2.2150002
-1.0381687 -0.80235904 2.2130001
-1.0305465 -0.8009088 2.2090001
-1.0224812 -0.79909593 2.204
-1.0153646 -0.79800826 2.2010002
-1.0078049 -0.79655796 2.197
-1.0066515 -0.80018359 2.207
-1.0000041 -0.79945856 2.2050002
-0.9933669 -0.79873335 2.2030001
-0.98674023 -0.79800826 2.2010002
-0.98056954 -0.79764569 2.2
-0.97440422 -0.79728311 2.1990001
-0.96912497 -0.79764569 2.2
-0.96384072 -0.79800826 2.2010002
-0.95855111 -0.79837084 2.2020001
-0.95368892 -0.79909593 2.204
-0.94838643 -0.79945856 2.2050002
-0.94350612 -0.80018359 2.207
-0.93861544 -0.8009088 2.2090001
-0.93329209 -0.80127132 2.21
-0.92838323 -0.80199647 2.2120001
-0.92346388 -0.80272156 2.214
-0.91811973 -0.80308419 2.2150002
-0.91235846 -0.80308419 2.2150002
-0.90618783 -0.80272156 2.214
-0.89961576 -0.80199647 2.2120001
-0.89264995 -0.8009088 2.2090001
-0.88569981 -0.79982108 2.2060001
-0.87876517 -0.79873335 2.2030001
-0.8718462 -0.79764569 2.2
-0.86415553 -0.79583287 2.1950002
-0.85336202 -0.79111952 2.1820002
-0.84690958 -0.79039437 2.1800001
-0.84085345 -0.79003179 2.1790001
-0.83441913 -0.78930664 2.177
-0.82761467 -0.78821892 2.174
-0.82120389 -0.78749382 2.1720002
-0.81442791 -0.78640616 2.1690001
-0.8080405 -0.78568101 2.1670001
-0.80166358 -0.78495592 2.1650002
-0.79566455 -0.78459328 2.164
-0.78930581 -0.78386819 2.1620002
-0.78078246 -0.78096759 2.154
-0.77553976 -0.78133023 2.1550002
-0.76993454 -0.78133023 2.1550002
-0.76539326 -0.78241783 2.158
-0.76083648 -0.78350556 2.161
-0.75591457 -0.78423071 2.1630001
-0.75132918 -0.78531843 2.1660001
-0.74879384 -0.78858155 2.1750002
-0.74347818 -0.78894413 2.1760001
-0.73747933 -0.78858155 2.1750002
-0.73081267 -0.78749382 2.1720002
-0.72449541 -0.78676867 2.1700001
-0.71851993 -0.78640616 2.1690001
-0.71189231 -0.78531843 2.1660001
-0.70495415 -0.78386819 2.1620002
-0.70159495 -0.78640616 2.1690001
-0.69531161 -0.78568101 2.1670001
-0.68903863 -0.78495592 2.1650002
-0.68277603 -0.78423071 2.1630001
-0.67308021 -0.77951735 2.1500001
-0.66686702 -0.7787922 2.148
-0.66066432 -0.77806711 2.1460001
-0.65477729 -0.7777046 2.1450002
-0.64889532 -0.77734196 2.1440001
-0.64661938 -0.78133023 2.1550002
-0.64101416 -0.78133023 2.1550002
-0.63570368 -0.7816928 2.1560001
-0.6300959 -0.7816928 2.1560001
-0.62332946 -0.78024256 2.1520002
-0.61801904 -0.78060508 2.1530001
-0.61327237 -0.7816928 2.1560001
-0.59582692 -0.76646501 2.1140001
-0.58641893 -0.76138908 2.1000001
-0.57625371 -0.75522548 2.0830002
-0.57028764 -0.75450033 2.0810001
-0.56378913 -0.75305003 2.0770001
-0.55354756 -0.7465238 2.059
-0.38452414 -0.54493701 1.503
-0.37858886 -0.54203653 1.4950001
-0.37419903 -0.54131132 1.493
-0.36932355 -0.53986108 1.4890001
-0.36495978 -0.53913599 1.4870001
-0.36060631 -0.53841084 1.485
-0.35650358 -0.53804827 1.4840001
-0.352406 -0.53768569 1.483
-0.34831363 -0.53732318 1.4820001
-0.34399405 -0.53659797 1.48
-0.33968484 -0.53587288 1.478
-0.33515882 -0.53478515 1.475
-0.33042383 -0.53333491 1.4710001
-0.32570961 -0.53188467 1.4670001
-0.32057732 -0.52970928 1.4610001
-0.31569311 -0.5278964 1.4560001
-0.31083488 -0.52608359 1.4510001
-0.30579105 -0.5239082 1.4450001
-0.30098745 -0.52209538 1.4400001
-0.29620987 -0.52028251 1.4350001
-0.29145831 -0.51846969 1.4300001
-0.28713518 -0.51738197 1.427
-0.28302625 -0.51665688 1.4250001
-0.27892777 -0.51593173 1.4230001
-0.27754745 -0.52028251 1.4350001
-0.271716 -0.5162943 1.424
-0.27027068 -0.52064508 1.4360001
-0.26653558 -0.52064508 1.4360001
-0.2629835 -0.52100766 1.437
-0.25942624 -0.52137023 1.4380001
-0.25586373 -0.52173275 1.439
-0.25229603 -0.52209538 1.4400001
-0.24872316 -0.52245796 1.4410001
-0.24514505 -0.52282047 1.442
-0.24156177 -0.52318305 1.4430001
-0.23649007 -0.52028251 1.4350001
-0.23291978 -0.52064508 1.4360001
-0.22934429 -0.52100766 1.437
-0.22497861 -0.51955742 1.4330001
-0.22125131 -0.51955742 1.4330001
-0.21737224 -0.51919484 1.432
-0.21349835 -0.51883227 1.4310001
-0.21124221 -0.52245796 1.4410001
-0.20547822 -0.51738197 1.427
-0.20162515 -0.51701945 1.4260001
-0.19791606 -0.51701945 1.4260001
-0.1940708 -0.51665688 1.4250001
-0.19023071 -0.5162943 1.424
-0.18652683 -0.5162943 1.424
-0.1826946 -0.51593173 1.4230001
-0.17899331 -0.51593173 1.4230001
-0.17541522 -0.5162943 1.424
-0.17171134 -0.5162943 1.424
-0.16812545 -0.51665688 1.4250001
-0.16384205 -0.51484406 1.4200001
-0.16014859 -0.51484406 1.4200001
-0.15645511 -0.51484406 1.4200001
-0.15276164 -0.51484406 1.4200001
-0.15011795 -0.51846969 1.4300001
-0.14639847 -0.51846969 1.4300001
-0.14277877 -0.51883227 1.4310001
-0.13905667 -0.51883227 1.4310001
-0.13542916 -0.51919484 1.432
-0.13170448 -0.51919484 1.432
-0.12797979 -0.51919484 1.432
-0.12416834 -0.51883227 1.4310001
-0.12027791 -0.51810712 1.429
-0.11656103 -0.51810712 1.429
-0.11276518 -0.5177446 1.4280001
-0.10897453 -0.51738197 1.427
-0.10511532 -0.51665688 1.4250001
-0.10133767 -0.5162943 1.424
-0.09783949 -0.51738197 1.427
-0.094127811 -0.51738197 1.427
-0.090352781 -0.51701945 1.4260001
-0.087433569 -0.52173275 1.439
-0.083806999 -0.52245796 1.4410001
-0.080114461 -0.52282047 1.442
-0.075834192 -0.51919484 1.432
-0.072109506 -0.51919484 1.432
-0.068480335 -0.51991993 1.434
-0.06475044 -0.51991993 1.434
-0.061063115 -0.52028251 1.4350001
-0.057330623 -0.52028251 1.4350001
-0.053635489 -0.52064508 1.4360001
-0.049900398 -0.52064508 1.4360001
-0.046133157 -0.52028251 1.4350001
-0.042430222 -0.52064508 1.4360001
-0.038668185 -0.52028251 1.4350001
-0.034960043 -0.52064508 1.4360001
-0.031224951 -0.52064508 1.4360001
-0.027509004 -0.52100766 1.437
-0.023787856 -0.52137023 1.4380001
-0.020047566 -0.52137023 1.4380001
-0.016318614 -0.52173275 1.439
-0.01258446 -0.52209538 1.4400001
-0.0088389665 -0.52209538 1.4400001
-0.0051005478 -0.52282047 1.442
-0.0013507882 -0.52318305 1.4430001
0.0024025084 -0.52318305 1.4430001
0.0061600716 -0.52354562 1.4440001
0.0099709043 -0.52644616 1.452
0.013662398 -0.52318305 1.4430001
0.017415695 -0.52318305 1.4430001
0.021257013 -0.5253585 1.4490001
0.025008645 -0.52499586 1.4480001
0.028516607 -0.52028251 1.4350001
0.032249097 -0.52028251 1.4350001
0.03603173 -0.52100766 1.437
0.039797097 -0.52137023 1.4380001
0.043537389 -0.52137023 1.4380001
0.047277682 -0.52137023 1.4380001
0.05101797 -0.52137023 1.4380001
0.055139061 -0.52499586 1.4480001
0.058864675 -0.52463329 1.447
0.062628381 -0.52463329 1.447
0.066392079 -0.52463329 1.447
0.070204265 -0.52499586 1.4480001
0.073919483 -0.52463329 1.447
0.077683181 -0.52463329 1.447
0.081390604 -0.52427077 1.4460001
0.085151695 -0.52427077 1.4460001
0.08885131 -0.5239082 1.4450001
0.0926098 -0.5239082 1.4450001
0.096234933 -0.52318305 1.4430001
0.099918932 -0.52282047 1.442
0.10359773 -0.52245796 1.4410001
0.10719683 -0.52173275 1.439
0.11086264 -0.52137023 1.4380001
0.11460293 -0.52137023 1.4380001
0.11776714 -0.51883227 1.4310001
0.12165903 -0.51955742 1.4330001
0.12521131 -0.51883227 1.4310001
0.12965418 -0.52173275 1.439
0.13348979 -0.52209538 1.4400001
0.13723528 -0.52209538 1.4400001
0.14107868 -0.52245796 1.4410001
0.14492726 -0.52282047 1.442
0.14878109 -0.52318305 1.4430001
0.15264009 -0.52354562 1.4440001
0.15650429 -0.5239082 1.4450001
0.1604846 -0.52463329 1.447
0.1642483 -0.52463329 1.447
0.16847645 -0.52608359 1.4510001
0.17248797 -0.52680874 1.4530001
0.17626728 -0.52680874 1.4530001
0.18017051 -0.52717131 1.4540001
0.18369937 -0.52644616 1.452
0.18786344 -0.52753383 1.455
0.19019906 -0.52354562 1.4440001
0.19382064 -0.52318305 1.4430001
0.19743702 -0.52282047 1.442
0.2010482 -0.52245796 1.4410001
0.2047963 -0.52245796 1.4410001
0.20839967 -0.52209538 1.4400001
0.21214515 -0.52209538 1.4400001
0.21589065 -0.52209538 1.4400001
0.21963613 -0.52209538 1.4400001
0.22353676 -0.52245796 1.4410001
0.22728486 -0.52245796 1.4410001
0.23103294 -0.52245796 1.4410001
0.23478104 -0.52245796 1.4410001
0.23852915 -0.52245796 1.4410001
0.24210909 -0.52209538 1.4400001
0.24585459 -0.52209538 1.4400001
0.2496001 -0.52209538 1.4400001
0.25334558 -0.52209538 1.4400001
0.25798374 -0.5239082 1.4450001
0.26192337 -0.52427077 1.4460001
0.26586822 -0.52463329 1.447
0.26981828 -0.52499586 1.4480001
0.27452925 -0.52680874 1.4530001
0.27811703 -0.52644616 1.452
0.28208789 -0.52680874 1.4530001
0.28567043 -0.52644616 1.452
0.28904846 -0.52572101 1.45
0.29281998 -0.52572101 1.45
0.29618236 -0.52499586 1.4480001
0.29974154 -0.52463329 1.447
0.30329549 -0.52427077 1.4460001
0.30684423 -0.5239082 1.4450001
0.31017283 -0.52318305 1.4430001
0.31370857 -0.52282047 1.442
0.31745926 -0.52282047 1.442
0.32120997 -0.52282047 1.442
0.32496065 -0.52282047 1.442
0.32871136 -0.52282047 1.442
0.33269262 -0.52318305 1.4430001
0.3364459 -0.52318305 1.4430001
0.3401992 -0.52318305 1.4430001
0.34395251 -0.52318305 1.4430001
0.34746483 -0.52282047 1.442
0.35121554 -0.52282047 1.442
0.35472009 -0.52245796 1.4410001
0.35821939 -0.52209538 1.4400001
0.36146218 -0.52137023 1.4380001
0.36494848 -0.52100766 1.437
0.36817306 -0.52028251 1.4350001
0.37423807 -0.52354562 1.4440001
0.3782557 -0.5239082 1.4450001
0.38174987 -0.52354562 1.4440001
0.38550577 -0.52354562 1.4440001
0.38899207 -0.52318305 1.4430001
0.39247316 -0.52282047 1.442
0.39594913 -0.52245796 1.4410001
0.39941981 -0.52209538 1.4400001
0.40316531 -0.52209538 1.4400001
0.40578052 -0.52064508 1.4360001
0.40866005 -0.51955742 1.4330001
0.4118118 -0.51883227 1.4310001
0.41524351 -0.51846969 1.4300001
0.41779107 -0.51701945 1.4260001
0.42061338 -0.51593173 1.4230001
0.42342013 -0.51484406 1.4200001
0.4268128 -0.51448143 1.419
0.41776147 -0.49925369 1.3770001
0.42317903 -0.50142908 1.383
0.41011256 -0.48185053 1.3290001
0.40423366 -0.47097349 1.299
0.40008152 -0.46227193 1.2750001
0.39358971 -0.45103237 1.2440001
0.38406575 -0.43652976 1.2040001
0.38494626 -0.43399176 1.197
0.38222417 -0.42746556 1.179
0.38267642 -0.42456502 1.171
0.38275772 -0.42130196 1.1620001
0.38312414 -0.41840142 1.154
0.38445276 -0.41658857 1.149
0.38508093 -0.41405064 1.1420001
0.38669214 -0.41260034 1.138
0.38759771 -0.41042498 1.1320001
0.38847205 -0.40824956 1.126
0.38966283 -0.40643674 1.1210001
0.39047736 -0.40426132 1.115
0.39126068 -0.40208596 1.1090001
0.3920128 -0.39991054 1.103
0.39237571 -0.39737257 1.0960001
0.39306277 -0.39519718 1.09
0.39408189 -0.39338434 1.085
0.3888562 -0.38540789 1.0630001
0.38830537 -0.38214478 1.054
0.38807878 -0.37924424 1.046
0.38818416 -0.3767063 1.039
0.38862935 -0.37453088 1.033
0.38373992 -0.36727956 1.013
0.38408631 -0.3651042 1.0070001
0.38478544 -0.36329138 1.0020001
0.38507199 -0.36111596 0.99600005
0.3857165 -0.35930312 0.99100006
0.38633502 -0.3574903 0.98600006
0.38692757 -0.35567746 0.98100007
0.38789108 -0.35422722 0.97700006
0.38883379 -0.35277694 0.97300005
0.38975573 -0.35132667 0.96900004
0.3906568 -0.3498764 0.96500003
0.39112967 -0.34806356 0.96000004
0.39198655 -0.34661329 0.95600003
0.39241001 -0.34480047 0.95100003
0.39322266 -0.3433502 0.94700003
0.39401451 -0.34189993 0.94300002
0.39478558 -0.34044969 0.93900007
0.39595884 -0.339362 0.93600005
0.39711651 -0.33827427 0.93300003
0.3982586 -0.3371866 0.93000007
0.39981586 -0.33646145 0.92800003
0.40136275 -0.33573633 0.92600006
0.40289924 -0.33501118 0.92400002
0.40442532 -0.33428606 0.92200005
0.40638223 -0.33392349 0.92100006
0.40789011 -0.33319834 0.91900003
0.40983403 -0.33283579 0.91800004
0.41177273 -0.33247322 0.91700006
0.41370627 -0.33211067 0.91600007
0.41608882 -0.33211067 0.91600007
0.41847134 -0.33211067 0.91600007
0.42131335 -0.33247322 0.91700006
0.42416054 -0.33283579 0.91800004
0.42747757 -0.33356091 0.92000002
0.4312723 -0.33464861 0.92300004
0.43508261 -0.33573633 0.92600006
0.43890852 -0.336824 0.92900002
0.44275004 -0.33791173 0.93200004
0.44612953 -0.33863685 0.93400002
0.4495194 -0.339362 0.93600005
0.45388541 -0.34081227 0.94000006
0.45778674 -0.34189993 0.94300002
0.46267983 -0.34371278 0.94800007
0.46367362 -0.34262508 0.94500005
0.46218553 -0.33972454 0.93700004
0.46561444 -0.34044969 0.93900007
0.46855524 -0.34081227 0.94000006
0.47500876 -0.34371278 0.94800007
0.47999287 -0.34552562 0.95300007
-1.1409379 -0.77644491 2.1570001
-1.1379594 -0.77824479 2.1620002
-1.131812 -0.77788472 2.161
-1.1261911 -0.77788472 2.161
-1.1205703 -0.77788472 2.161
-1.111854 -0.77572501 2.1550002
-1.1062487 -0.77572501 2.1550002
-1.1016649 -0.77644491 2.1570001
-1.0965625 -0.77680486 2.158
-1.092466 -0.77788472 2.161
-1.0943893 -0.78328425 2.1760001
-1.0837262 -0.7796846 2.1660001
-1.0830696 -0.78328425 2.1760001
-1.081866 -0.786524 2.1850002
-1.0801229 -0.78940368 2.1930001
-1.0778484 -0.7919234 2.2
-1.0750501 -0.79408324 2.2060001
-1.071251 -0.79552305 2.21
-1.0669492 -0.79660296 2.2130001
-1.0621521 -0.79732293 2.2150002
-1.0573447 -0.79804277 2.217
-1.0515782 -0.79804277 2.217
-1.0462835 -0.79840285 2.2180002
-1.0395761 -0.79768288 2.2160001
-1.0324126 -0.79660296 2.2130001
-1.0248009 -0.79516309 2.2090001
-1.0176712 -0.79408324 2.2060001
-1.0100985 -0.79264337 2.2020001
-1.0089321 -0.79624301 2.2120001
-1.0022715 -0.79552305 2.21
-0.99562156 -0.7948032 2.2080002
-0.98898172 -0.79408324 2.2060001
-0.98279816 -0.79372329 2.2050002
-0.97661972 -0.79336327 2.204
-0.97088701 -0.79336327 2.204
-0.96559232 -0.79372329 2.2050002
-0.95985705 -0.79372329 2.2050002
-0.95498711 -0.79444313 2.207
-0.94967681 -0.7948032 2.2080002
-0.94436121 -0.79516309 2.2090001
-0.93946528 -0.79588306 2.2110002
-0.93413669 -0.79624301 2.2120001
-0.92880291 -0.79660296 2.2130001
-0.92388105 -0.79732293 2.2150002
-0.91853422 -0.79768288 2.2160001
-0.91277033 -0.79768288 2.2160001
-0.9065972 -0.79732293 2.2150002
-0.90002239 -0.79660296 2.2130001
-0.89345819 -0.79588306 2.2110002
-0.8865028 -0.7948032 2.2080002
-0.87956303 -0.79372329 2.2050002
-0.87263882 -0.79264337 2.2020001
-0.86533666 -0.7912035 2.1980002
-0.85336202 -0.78544408 2.1820002
-0.8488521 -0.786524 2.1850002
-0.84162521 -0.78508407 2.181
-0.83595228 -0.78508407 2.181
-0.82951814 -0.78436416 2.1790001
-0.82271624 -0.78328425 2.1760001
-0.81630534 -0.78256428 2.174
-0.80841345 -0.78040457 2.1680002
-0.80166358 -0.77932465 2.1650002
-0.79529685 -0.77860469 2.1630001
-0.78930581 -0.77824479 2.1620002
-0.78042001 -0.77500504 2.1530001
-0.77446008 -0.77464515 2.1520002
-0.76921993 -0.77500504 2.1530001
-0.76432931 -0.77572501 2.1550002
-0.7594282 -0.77644491 2.1570001
-0.75486612 -0.77752483 2.1600001
-0.74994171 -0.77824479 2.1620002
-0.74741668 -0.78148443 2.171
-0.7421115 -0.78184444 2.1720002
-0.73578393 -0.78112447 2.1700001
-0.72913027 -0.78004456 2.1670001
-0.72282606 -0.77932465 2.1650002
-0.71653229 -0.77860469 2.1630001
-0.71024889 -0.77788472 2.161
-0.70332378 -0.77644491 2.1570001
-0.69609606 -0.77464515 2.1520002
-0.68921512 -0.77320522 2.148
-0.68267334 -0.77212536 2.1450002
-0.67646283 -0.7714054 2.1430001
-0.67057574 -0.77104551 2.1420002
-0.66500431 -0.77104551 2.1420002
-0.65943289 -0.77104551 2.1420002
-0.65416676 -0.7714054 2.1430001
-0.64829004 -0.77104551 2.1420002
-0.64151835 -0.76960558 2.138
-0.63565993 -0.76924562 2.1370001
-0.63246036 -0.77212536 2.1450002
-0.62717336 -0.77248532 2.1460001
-0.62361908 -0.77500504 2.1530001
-0.61773199 -0.77464515 2.1520002
-0.60132551 -0.76096642 2.1140001
-0.59526318 -0.76024646 2.112
-0.58362645 -0.75232726 2.0900002
-0.57680696 -0.75052738 2.085
-0.56973952 -0.74836761 2.079
-0.56243187 -0.74584788 2.072
-0.55623597 -0.74476796 2.069
-0.38298911 -0.53886789 1.4970001
-0.37808236 -0.53742802 1.493
-0.37369779 -0.53670812 1.4910001
-0.36932355 -0.53598815 1.4890001
-0.36495978 -0.53526825 1.4870001
-0.36060631 -0.53454828 1.485
-0.35650358 -0.53418833 1.4840001
-0.35216838 -0.53346843 1.4820001
-0.34807861 -0.53310847 1.4810001
-0.34376162 -0.53238851 1.4790001
-0.33945504 -0.5316686 1.4770001
-0.33470437 -0.53022873 1.473
-0.32997456 -0.52878886 1.4690001
-0.32526553 -0.527349 1.465
-0.32035789 -0.52554917 1.46
-0.31547627 -0.52374935 1.455
-0.31040645 -0.52158958 1.4490001
-0.30515617 -0.51906979 1.442
-0.30036041 -0.51726997 1.437
-0.29559061 -0.51547015 1.432
-0.29105067 -0.51403028 1.4280001
-0.28934854 -0.51762998 1.4380001
-0.28521103 -0.51691002 1.4360001
-0.28127992 -0.51655006 1.4350001
-0.27754745 -0.51655006 1.4350001
-0.27381495 -0.51655006 1.4350001
-0.26820037 -0.51295042 1.4250001
-0.26467949 -0.51331037 1.4260001
-0.26316652 -0.51762998 1.4380001
-0.25960663 -0.51798987 1.439
-0.25621936 -0.51870984 1.4410001
-0.25264645 -0.51906979 1.442
-0.24924098 -0.51978976 1.4440001
-0.24565507 -0.52014971 1.4450001
-0.24072476 -0.51762998 1.4380001
-0.23714927 -0.51798987 1.439
-0.23356858 -0.51834989 1.4400001
-0.2298231 -0.51834989 1.4400001
-0.22560659 -0.51726997 1.437
-0.22372168 -0.52158958 1.4490001
-0.21980098 -0.52122962 1.4480001
-0.21469191 -0.51798987 1.439
-0.21182857 -0.52014971 1.4450001
-0.2060542 -0.51511019 1.4310001
-0.20219071 -0.51475024 1.4300001
-0.19847122 -0.51475024 1.4300001
