# .PCD v0.7 - Point Cloud Data file format
VERSION 0.7
FIELDS x y z
SIZE 4 4 4
TYPE F F F
COUNT 1 1 1
WIDTH 1483
HEIGHT 1
VIEWPOINT 0 0 0 1 0 0 0
POINTS 1483
DATA ascii
0.39789525 -0.19434617 0.91800004
0.39941096 -0.19392276 0.91600007
0.40091622 -0.19349934 0.91400003
0.40285233 -0.19328764 0.91300005
0.40478325 -0.19307594 0.91200006
0.40715539 -0.19307594 0.91200006
0.40907848 -0.19286424 0.91100007
0.41099638 -0.19265252 0.91000003
0.41381758 -0.19286424 0.91100007
0.41618711 -0.19286424 0.91100007
0.41855669 -0.19286424 0.91100007
0.42092621 -0.19286424 0.91100007
0.42376038 -0.19307594 0.91200006
0.4265998 -0.19328764 0.91300005
0.4294444 -0.19349934 0.91400003
0.43229419 -0.19371104 0.91500002
0.43467411 -0.19371104 0.91500002
0.4370541 -0.19371104 0.91500002
0.43943402 -0.19371104 0.91500002
0.44133112 -0.19349934 0.91400003
0.44370848 -0.19349934 0.91400003
0.44608581 -0.19349934 0.91400003
0.44846317 -0.19349934 0.91400003
0.45034727 -0.19328764 0.91300005
0.45272201 -0.19328764 0.91300005
0.45459828 -0.19307594 0.91200006
0.45646939 -0.19286424 0.91100007
0.45833525 -0.19265252 0.91000003
-1.2879852 -0.50917077 2.4350002
-1.2827042 -0.50958896 2.437
-1.277413 -0.5100072 2.4390001
-1.2721114 -0.51042545 2.4410002
-1.2667993 -0.51084358 2.4430001
-1.2614769 -0.51126182 2.4450002
-1.2551174 -0.51126182 2.4450002
-1.248247 -0.51105267 2.444
-1.2413819 -0.51084358 2.4430001
-1.2340165 -0.51042545 2.4410002
-1.2256557 -0.50958896 2.437
-1.2173157 -0.50875258 2.4330001
-1.209494 -0.50812525 2.4300001
-1.2026784 -0.50791615 2.4290001
-1.1889725 -0.50477958 2.414
-1.1817138 -0.50436139 2.4120002
-1.1734908 -0.50352496 2.4080002
-1.1652886 -0.50268853 2.404
-1.1561428 -0.50143385 2.398
-1.1475079 -0.50038838 2.3930001
-1.139376 -0.49955195 2.3890002
-1.1307905 -0.4985064 2.3840001
-1.1175138 -0.49536985 2.3690002
-1.103846 -0.49202418 2.3530002
-1.0963261 -0.49139684 2.3500001
-1.0888219 -0.49076954 2.3470001
-1.0831785 -0.49097863 2.348
-1.074319 -0.48972398 2.342
-1.0718764 -0.49139684 2.3500001
-1.065764 -0.49139684 2.3500001
-1.0592006 -0.49118775 2.3490002
-1.0530908 -0.49118775 2.3490002
-1.046981 -0.49118775 2.3490002
-1.0417573 -0.49160594 2.3510001
-1.0360826 -0.49181503 2.352
-1.030403 -0.49202418 2.3530002
-1.0242828 -0.49202418 2.3530002
-0.98830569 -0.47759593 2.2840002
-0.95827895 -0.46588603 2.2280002
-0.91871083 -0.44936675 2.1490002
-0.74029881 -0.3734616 1.7860001
-0.72123682 -0.36614293 1.751
-0.70194769 -0.35861513 1.715
-0.68650603 -0.35296932 1.6880001
-0.67928684 -0.35150558 1.6810001
-0.67411155 -0.35108736 1.6790001
-0.66854763 -0.35046005 1.6760001
-0.66299945 -0.34983274 1.6730001
-0.65707314 -0.34899631 1.669
-0.65155876 -0.348369 1.6660001
-0.64567143 -0.34753257 1.6620001
-0.64019084 -0.34690526 1.659
-0.63472587 -0.34627795 1.6560001
-0.62927651 -0.34565064 1.6530001
-0.62384272 -0.3450233 1.6500001
-0.61992645 -0.3452324 1.651
-0.6148864 -0.34481421 1.649
-0.60985672 -0.344396 1.6470001
-0.60263133 -0.34272316 1.6390001
-0.59654284 -0.34167764 1.6340001
-0.59084284 -0.34084123 1.6300001
-0.58516359 -0.3400048 1.626
-0.57843339 -0.33854106 1.6190001
-0.57138491 -0.33686823 1.6110001
-0.55698442 -0.33080417 1.582
-0.54937482 -0.32871312 1.572
-0.54320478 -0.3274585 1.5660001
-0.53500026 -0.32494923 1.554
-0.53095824 -0.32494923 1.554
-0.5272553 -0.32515833 1.5550001
-0.5211919 -0.32390371 1.549
-0.51682895 -0.32369462 1.5480001
-0.51445895 -0.32474014 1.5530001
-0.51206285 -0.32578567 1.5580001
-0.50931466 -0.32662207 1.562
-0.50719267 -0.32787672 1.5680001
-0.50536031 -0.32934043 1.575
-0.50317323 -0.33059508 1.5810001
-0.50063932 -0.3316406 1.5860001
-0.50027078 -0.33414984 1.598
-0.5085327 -0.34251407 1.6380001
-0.50919789 -0.34585974 1.654
-0.52015871 -0.35631499 1.7040001
-0.53903103 -0.37241608 1.7810001
-0.5488013 -0.38245311 1.8290001
-0.55921417 -0.39311749 1.8800001
-0.57378447 -0.40691841 1.9460001
-0.58830374 -0.42092842 2.013
-0.60826761 -0.43912059 2.1000001
-0.60395354 -0.43995699 2.1040001
-0.59904993 -0.44037524 2.1060002
-0.5887807 -0.43682042 2.089
-0.58223015 -0.43598399 2.085
-0.57542378 -0.43493849 2.0800002
-0.56809533 -0.43347478 2.0730002
-0.56297481 -0.43368384 2.0740001
-0.55677366 -0.43305653 2.0710001
-0.53461373 -0.41988292 2.0080001
-0.50170857 -0.3979269 1.9030001
-0.40416577 -0.33373165 1.5960001
-0.39750817 -0.3316406 1.5860001
-0.39313486 -0.33143148 1.585
-0.38582161 -0.32871312 1.572
-0.38148993 -0.32850403 1.5710001
-0.37884507 -0.32975864 1.577
-0.37450564 -0.32954955 1.5760001
-0.37017137 -0.32934043 1.575
-0.36607474 -0.32934043 1.575
-0.36174828 -0.32913134 1.5740001
-0.35788146 -0.32934043 1.575
-0.35356024 -0.32913134 1.5740001
-0.3496882 -0.32934043 1.575
-0.34559155 -0.32934043 1.575
-0.34149495 -0.32934043 1.575
-0.33739829 -0.32934043 1.575
-0.33330166 -0.32934043 1.575
-0.32962307 -0.32975864 1.577
-0.32531482 -0.32954955 1.5760001
-0.32080796 -0.32913134 1.5740001
-0.31631148 -0.32871312 1.572
-0.31182542 -0.3282949 1.5700001
-0.30734977 -0.32787672 1.5680001
-0.30307794 -0.32766759 1.567
-0.29900208 -0.32766759 1.567
-0.29473808 -0.3274585 1.5660001
-0.29066485 -0.3274585 1.5660001
-0.28677461 -0.32766759 1.567
-0.28269881 -0.32766759 1.567
-0.27684492 -0.32557654 1.557
-0.2726199 -0.32536745 1.5560001
-0.26822746 -0.32494923 1.554
-0.26384544 -0.32453102 1.552
-0.25964123 -0.32432193 1.5510001
-0.25527743 -0.32390371 1.549
-0.25108624 -0.32369462 1.5480001
-0.24705984 -0.32369462 1.5480001
-0.24303342 -0.32369462 1.5480001
-0.239007 -0.32369462 1.5480001
-0.2351324 -0.32390371 1.549
-0.23110338 -0.32390371 1.549
-0.22736757 -0.32432193 1.5510001
-0.22491729 -0.32662207 1.562
-0.22099586 -0.32683119 1.5630001
-0.21706922 -0.32704028 1.5640001
-0.2131374 -0.32724938 1.5650001
-0.20906676 -0.32724938 1.5650001
-0.20224538 -0.32285818 1.544
-0.19835779 -0.32306728 1.5450001
-0.19459075 -0.32348549 1.5470001
-0.19056696 -0.32348549 1.5470001
-0.18654315 -0.32348549 1.5470001
-0.18417111 -0.32641298 1.5610001
-0.18011089 -0.32641298 1.5610001
-0.17616343 -0.32662207 1.562
-0.17199045 -0.32641298 1.5610001
-0.16782264 -0.32620385 1.5600001
-0.16397499 -0.32662207 1.562
-0.15909316 -0.32494923 1.554
-0.15495138 -0.32474014 1.5530001
-0.1507176 -0.32432193 1.5510001
-0.14639968 -0.32369462 1.5480001
-0.14209735 -0.32306728 1.5450001
-0.13790001 -0.32264909 1.5430001
-0.13371307 -0.32223088 1.5410001
-0.1296207 -0.32202175 1.5400001
-0.12553354 -0.32181266 1.539
-0.12145157 -0.32160357 1.5380001
-0.11745118 -0.32160357 1.5380001
-0.11345079 -0.32160357 1.5380001
-0.10952155 -0.32181266 1.539
-0.10558712 -0.32202175 1.5400001
-0.10164749 -0.32223088 1.5410001
-0.097702652 -0.32243997 1.5420001
-0.093813367 -0.32285818 1.544
-0.08997184 -0.32348549 1.5470001
-0.086059153 -0.32390371 1.549
-0.082189016 -0.32453102 1.552
-0.078252912 -0.32494923 1.554
-0.074306421 -0.32536745 1.5560001
-0.070349507 -0.32578567 1.5580001
-0.0663822 -0.32620385 1.5600001
-0.062404484 -0.32662207 1.562
-0.05841637 -0.32704028 1.5640001
-0.054417845 -0.3274585 1.5660001
-0.050408915 -0.32787672 1.5680001
-0.046389583 -0.3282949 1.5700001
-0.042548478 -0.33017686 1.5790001
-0.038368404 -0.32954955 1.5760001
-0.034073465 -0.32766759 1.567
-0.029901924 -0.32662207 1.562
-0.026037613 -0.32913134 1.5740001
-0.02194358 -0.32913134 1.5740001
-0.017849548 -0.32913134 1.5740001
-0.013746775 -0.32892224 1.5730001
-0.0096553434 -0.32892224 1.5730001
-0.0055639124 -0.32892224 1.5730001
-0.0014715447 -0.32871312 1.572
0.0025939764 -0.32578567 1.5580001
0.0066890526 -0.32787672 1.5680001
0.010678207 -0.32515833 1.5550001
0.014722819 -0.32515833 1.5550001
0.018779503 -0.32536745 1.5560001
0.022826716 -0.32536745 1.5560001
0.026891202 -0.32557654 1.557
0.03098076 -0.32599473 1.559
0.03532793 -0.32871312 1.572
0.039491981 -0.32934043 1.575
0.043643966 -0.32975864 1.577
0.047806356 -0.33017686 1.5790001
0.051979151 -0.33059508 1.5810001
0.056126863 -0.33080417 1.582
0.060241707 -0.33080417 1.582
0.064356543 -0.33080417 1.582
0.068471387 -0.33080417 1.582
0.07254035 -0.33059508 1.5810001
0.076604098 -0.33038595 1.58
0.08066266 -0.33017686 1.5790001
0.084662318 -0.32975864 1.577
0.088707872 -0.32954955 1.5760001
0.092748217 -0.32934043 1.575
0.096844852 -0.32934043 1.575
0.10094148 -0.32934043 1.575
0.10510482 -0.32954955 1.5760001
0.10927334 -0.32975864 1.577
0.11351896 -0.33017686 1.5790001
0.11777498 -0.33059508 1.5810001
0.12204142 -0.33101326 1.5830001
0.12639794 -0.3316406 1.5860001
0.13068777 -0.33205879 1.5880001
0.13498802 -0.332477 1.59
0.13938618 -0.33310431 1.5930001
0.14370982 -0.33352253 1.595
0.14711687 -0.33184972 1.5870001
0.15191184 -0.33331344 1.5940001
0.1563516 -0.33394074 1.5970001
0.16070646 -0.33435896 1.5990001
0.16496862 -0.33456805 1.6
0.16913028 -0.33456805 1.6
0.17296703 -0.33394074 1.5970001
0.17712088 -0.33394074 1.5970001
0.18138824 -0.33414984 1.598
0.1855447 -0.33414984 1.598
0.18958245 -0.33394074 1.5970001
0.1937363 -0.33394074 1.5970001
0.19789016 -0.33394074 1.5970001
0.20204403 -0.33394074 1.5970001
0.20619789 -0.33394074 1.5970001
0.21022001 -0.33373165 1.5960001
0.21437126 -0.33373165 1.5960001
0.21865946 -0.33394074 1.5970001
0.22225522 -0.33310431 1.5930001
0.22625656 -0.33289522 1.5920001
0.23039742 -0.33289522 1.5920001
0.23453826 -0.33289522 1.5920001
0.23867911 -0.33289522 1.5920001
0.24343005 -0.33373165 1.5960001
0.24742617 -0.33352253 1.595
0.25125939 -0.33310431 1.5930001
0.2552425 -0.33289522 1.5920001
0.25905749 -0.332477 1.59
0.26286209 -0.33205879 1.5880001
0.26682439 -0.33184972 1.5870001
0.27061078 -0.33143148 1.585
0.27456012 -0.33122239 1.5840001
0.27850419 -0.33101326 1.5830001
0.28262165 -0.33101326 1.5830001
0.28673908 -0.33101326 1.5830001
0.29104027 -0.33122239 1.5840001
0.29516032 -0.33122239 1.5840001
0.29928035 -0.33122239 1.5840001
0.30378348 -0.3316406 1.5860001
0.30810288 -0.33184972 1.5870001
0.31242743 -0.33205879 1.5880001
0.31655788 -0.33205879 1.5880001
0.32068834 -0.33205879 1.5880001
0.32481879 -0.33205879 1.5880001
0.32936352 -0.332477 1.59
0.33245045 -0.33143148 1.585
0.33614838 -0.33101326 1.5830001
0.34005088 -0.33080417 1.582
0.34438327 -0.33101326 1.5830001
0.35004178 -0.332477 1.59
0.3539547 -0.33226791 1.5890001
0.35808772 -0.33226791 1.5890001
0.36199281 -0.33205879 1.5880001
0.36658436 -0.332477 1.59
0.37095317 -0.33268613 1.5910001
0.37485567 -0.332477 1.59
0.38018313 -0.33352253 1.595
0.3848137 -0.33394074 1.5970001
0.38848042 -0.33352253 1.595
0.39312142 -0.33394074 1.5970001
0.39802155 -0.33456805 1.6
0.40268597 -0.33498627 1.6020001
0.40786865 -0.3358227 1.6060001
0.41255909 -0.33624089 1.608
0.4172599 -0.33665913 1.6100001
0.4217093 -0.33686823 1.6110001
0.42378464 -0.33519536 1.603
0.42902198 -0.33603179 1.6070001
0.43401057 -0.33665913 1.6100001
0.4390147 -0.33728641 1.613
0.44403455 -0.33791375 1.6160001
0.44879255 -0.33833194 1.618
0.45328099 -0.33854106 1.6190001
0.4577747 -0.33875018 1.6200001
0.46170315 -0.33854106 1.6190001
0.46562645 -0.33833194 1.618
0.4692542 -0.33791375 1.6160001
0.47287151 -0.33749554 1.6140001
0.4764784 -0.33707732 1.6120001
0.48007494 -0.33665913 1.6100001
0.48336023 -0.33603179 1.6070001
0.48723671 -0.3358227 1.6060001
0.491108 -0.33561358 1.605
0.49497408 -0.33540449 1.6040001
0.49883494 -0.33519536 1.603
0.50300443 -0.33519536 1.603
0.50717384 -0.33519536 1.603
0.5113433 -0.33519536 1.603
0.51583439 -0.33540449 1.6040001
0.52033061 -0.33561358 1.605
0.52515888 -0.33603179 1.6070001
0.52966815 -0.33624089 1.608
0.53418261 -0.33645001 1.6090001
0.53870231 -0.33665913 1.6100001
0.54322714 -0.33686823 1.6110001
0.54775727 -0.33707732 1.6120001
0.5519501 -0.33707732 1.6120001
0.55579793 -0.33686823 1.6110001
0.55964065 -0.33665913 1.6100001
0.56347811 -0.33645001 1.6090001
0.56872159 -0.33707732 1.6120001
0.5722037 -0.33665913 1.6100001
0.57603329 -0.33645001 1.6090001
0.57949716 -0.33603179 1.6070001
0.39861068 -0.20994146 1.0040001
0.4004229 -0.20952326 1.0020001
0.39860466 -0.2072231 0.99100006
0.39996779 -0.20659578 0.98800004
0.39194453 -0.20115906 0.96200007
0.38858274 -0.19446769 0.93000007
0.39058125 -0.19425857 0.92900002
0.39172852 -0.19363128 0.92600006
0.39328578 -0.19321305 0.92400002
0.3948327 -0.19279484 0.92200005
0.39636919 -0.19237663 0.92000002
0.39789525 -0.19195843 0.91800004
0.39941096 -0.19154023 0.91600007
0.40135485 -0.1913311 0.91500002
0.40329355 -0.19112201 0.91400003
0.40522709 -0.1909129 0.91300005
0.40760183 -0.1909129 0.91300005
0.40952751 -0.19070379 0.91200006
0.41189969 -0.19070379 0.91200006
0.41472605 -0.1909129 0.91300005
0.41710079 -0.1909129 0.91300005
0.41947556 -0.1909129 0.91300005
0.42231235 -0.19112201 0.91400003
0.42515433 -0.1913311 0.91500002
0.42800158 -0.19154023 0.91600007
0.4303841 -0.19154023 0.91600007
0.4332391 -0.19174932 0.91700006
0.43562424 -0.19174932 0.91700006
0.43800941 -0.19174932 0.91700006
0.44039455 -0.19174932 0.91700006
0.44277969 -0.19174932 0.91700006
0.44516486 -0.19174932 0.91700006
0.44755 -0.19174932 0.91700006
0.44993514 -0.19174932 0.91700006
0.45182705 -0.19154023 0.91600007
0.4542096 -0.19154023 0.91600007
0.45659214 -0.19154023 0.91600007
0.45847362 -0.1913311 0.91500002
0.46034992 -0.19112201 0.91400003
-1.2906299 -0.50386971 2.4400001
-1.285336 -0.50428277 2.4420002
-1.2800316 -0.50469577 2.444
-1.2741959 -0.5049023 2.4450002
-1.2683549 -0.50510877 2.4460001
-1.2625087 -0.50531524 2.447
-1.2556307 -0.50510877 2.4460001
-1.248247 -0.50469577 2.444
-1.2408738 -0.50428277 2.4420002
-1.2325 -0.50345677 2.4380002
-1.2241468 -0.50263071 2.434
-1.2153143 -0.50159824 2.4290001
-1.2070054 -0.50077224 2.4250002
-1.197232 -0.49932668 2.4180002
-1.1874949 -0.49788111 2.411
-1.1831837 -0.49870718 2.4150002
-1.1725161 -0.49684861 2.4060001
-1.1638343 -0.49581608 2.401
-1.1479467 -0.49168602 2.381
-1.1383969 -0.49024048 2.3740001
-1.1293606 -0.48900145 2.368
-1.1203554 -0.48776245 2.3620002
-1.1113813 -0.48652342 2.3560002
-1.1029077 -0.48549089 2.3510001
-1.0953931 -0.48487136 2.348
-1.0874301 -0.48404536 2.3440001
-1.0841012 -0.48528439 2.3500001
-1.0775301 -0.48507792 2.3490002
-1.070508 -0.48466489 2.3470001
-1.0644034 -0.48466489 2.3470001
-1.0582988 -0.48466489 2.3470001
-1.0521941 -0.48466489 2.3470001
-1.0460895 -0.48466489 2.3470001
-1.0408711 -0.48507792 2.3490002
-1.0352017 -0.48528439 2.3500001
-1.029965 -0.48569739 2.352
-1.0073057 -0.47785026 2.3140001
-0.97835338 -0.46690553 2.2610002
-0.92731118 -0.44522262 2.1560001
-0.73868769 -0.36571857 1.771
-0.71957374 -0.35849094 1.7360001
-0.70187759 -0.35188282 1.7040001
-0.69867331 -0.35250235 1.7070001
-0.68569267 -0.34816575 1.6860001
-0.67847866 -0.34672022 1.6790001
-0.67290705 -0.34610072 1.6760001
-0.66735095 -0.34548119 1.6730001
-0.66141427 -0.34465516 1.669
-0.65589207 -0.34403566 1.6660001
-0.64999431 -0.34320965 1.6620001
-0.64411747 -0.34238362 1.6580001
-0.63826138 -0.34155759 1.654
-0.6328094 -0.34093809 1.651
-0.62699234 -0.34011209 1.6470001
-0.62119615 -0.33928609 1.6430001
-0.61842453 -0.34011209 1.6470001
-0.61376774 -0.33990556 1.646
-0.60726476 -0.33866656 1.6400001
-0.60005754 -0.33701453 1.6320001
-0.59581268 -0.33701453 1.6320001
-0.58975542 -0.33598199 1.6270001
-0.58444387 -0.33536249 1.6240001
-0.57307422 -0.33123243 1.6040001
-0.55897123 -0.3254503 1.5760001
-0.55311161 -0.32441777 1.5710001
-0.54692847 -0.32317874 1.5650001
-0.54320478 -0.32338527 1.5660001
-0.5374102 -0.32235274 1.5610001
-0.53198326 -0.32152671 1.557
-0.52793342 -0.32152671 1.557
-0.51950949 -0.31884217 1.544
-0.51482576 -0.31842917 1.5420001
-0.51247132 -0.31946167 1.5470001
-0.51009083 -0.3204942 1.552
-0.50801045 -0.32173324 1.5580001
-0.50557536 -0.32276574 1.5630001
-0.50407684 -0.32441777 1.5710001
-0.50221843 -0.3258633 1.5780001
-0.49969229 -0.32689583 1.5830001
-0.49964467 -0.32958037 1.5960001
-0.50387579 -0.33515596 1.623
-0.50858223 -0.34114459 1.6520001
-0.51649559 -0.34940475 1.692
-0.52420092 -0.35766494 1.7320001
-0.54129988 -0.37253323 1.8040001
-0.55177784 -0.38306493 1.8550001
-0.56552863 -0.39607468 1.9180001
-0.57895172 -0.40908441 1.9810001
-0.59204715 -0.42209417 2.0440001
-0.59505504 -0.42808279 2.0730002
-0.58909416 -0.42766976 2.0710001
-0.58427119 -0.42808279 2.0730002
-0.57441127 -0.42477873 2.0570002
-0.56823099 -0.42415923 2.0540001
-0.56234032 -0.4237462 2.052
-0.55265993 -0.42044213 2.036
-0.40806121 -0.32937387 1.595
-0.40340605 -0.32896087 1.5930001
-0.39775881 -0.32772186 1.5870001
-0.39338291 -0.32751533 1.5860001
-0.38606703 -0.3248308 1.5730001
-0.38173276 -0.32462427 1.572
-0.37884507 -0.3256568 1.577
-0.37450564 -0.3254503 1.5760001
-0.37017137 -0.3252438 1.575
-0.36584234 -0.3250373 1.5740001
-0.36151844 -0.3248308 1.5730001
-0.357427 -0.3248308 1.5730001
-0.35333559 -0.3248308 1.5730001
-0.34924415 -0.3248308 1.5730001
-0.34515271 -0.3248308 1.5730001
-0.34106129 -0.3248308 1.5730001
-0.33696985 -0.3248308 1.5730001
-0.33393651 -0.3258633 1.5780001
-0.32941407 -0.3254503 1.5760001
-0.32510841 -0.3252438 1.575
-0.32060412 -0.3248308 1.5730001
-0.31611028 -0.32441777 1.5710001
-0.31162682 -0.32400477 1.5690001
-0.30734977 -0.32379827 1.5680001
-0.30307794 -0.32359177 1.567
-0.29900208 -0.32359177 1.567
-0.29492629 -0.32359177 1.567
-0.29085046 -0.32359177 1.567
-0.28714064 -0.32400477 1.5690001
-0.28107515 -0.32173324 1.5580001
-0.27684492 -0.32152671 1.557
-0.2726199 -0.32132024 1.5560001
-0.26822746 -0.32090721 1.554
-0.26401547 -0.32070071 1.5530001
-0.25980863 -0.3204942 1.552
-0.25560704 -0.3202877 1.5510001
-0.2514106 -0.3200812 1.5500001
-0.24737902 -0.3200812 1.5500001
-0.24334741 -0.3200812 1.5500001
-0.23931579 -0.3200812 1.5500001
-0.23558779 -0.3204942 1.552
-0.23170017 -0.32070071 1.5530001
-0.22956648 -0.32338527 1.5660001
-0.22549327 -0.32338527 1.5660001
-0.22156142 -0.32359177 1.567
-0.21665286 -0.32235274 1.5610001
-0.21286502 -0.32276574 1.5630001
-0.20893319 -0.32297227 1.5640001
-0.20696096 -0.3262763 1.58
-0.20297973 -0.32648283 1.5810001
-0.19836432 -0.3256568 1.577
-0.19450887 -0.32606983 1.5790001
-0.19052242 -0.3262763 1.58
-0.18629481 -0.32606983 1.5790001
-0.18091856 -0.32379827 1.5680001
-0.17684013 -0.32379827 1.5680001
-0.17265153 -0.32359177 1.567
-0.16846812 -0.32338527 1.5660001
-0.1643949 -0.32338527 1.5660001
-0.1598098 -0.32235274 1.5610001
-0.1556498 -0.32214624 1.5600001
-0.15130065 -0.32152671 1.557
-0.14696711 -0.32090721 1.554
-0.1426492 -0.3202877 1.5510001
-0.13843623 -0.31987467 1.549
-0.13423368 -0.31946167 1.5470001
-0.13012572 -0.3192552 1.5460001
-0.12594138 -0.31884217 1.544
-0.12184641 -0.31863567 1.5430001
-0.11783301 -0.31863567 1.5430001
-0.11381961 -0.31863567 1.5430001
-0.1098062 -0.31863567 1.5430001
-0.10586137 -0.31884217 1.544
-0.10191133 -0.31904867 1.5450001
-0.097956099 -0.3192552 1.5460001
-0.094056413 -0.3196682 1.5480001
-0.090146318 -0.3200812 1.5500001
-0.08622583 -0.3204942 1.552
-0.082347885 -0.32111371 1.5550001
-0.07840398 -0.32152671 1.557
-0.074449681 -0.32193971 1.559
-0.070530124 -0.32255924 1.562
-0.066552415 -0.32297227 1.5640001
-0.062564291 -0.32338527 1.5660001
-0.058565769 -0.32379827 1.5680001
-0.054556839 -0.32421127 1.5700001
-0.050537504 -0.32462427 1.572
-0.046507776 -0.3250373 1.5740001
-0.042710152 -0.32730883 1.585
-0.038538821 -0.32689583 1.5830001
-0.034182187 -0.32462427 1.572
-0.030016784 -0.32379827 1.5680001
-0.026136866 -0.3262763 1.58
-0.022027226 -0.3262763 1.58
-0.017917588 -0.3262763 1.58
-0.01379921 -0.32606983 1.5790001
-0.0096921725 -0.32606983 1.5790001
-0.0055851354 -0.32606983 1.5790001
-0.0014762252 -0.3256568 1.577
0.0026239455 -0.3254503 1.5760001
0.0067146486 -0.3250373 1.5740001
0.010794946 -0.32462427 1.572
0.014770159 -0.32214624 1.5600001
0.018839849 -0.32235274 1.5610001
0.022900067 -0.32235274 1.5610001
0.026977558 -0.32255924 1.562
0.03106025 -0.32276574 1.5630001
0.035417821 -0.3254503 1.5760001
0.039567206 -0.3258633 1.5780001
0.043726992 -0.3262763 1.58
0.047866907 -0.32648283 1.5810001
0.052044902 -0.32689583 1.5830001
0.056162342 -0.32689583 1.5830001
0.060279787 -0.32689583 1.5830001
0.064397223 -0.32689583 1.5830001
0.068514667 -0.32689583 1.5830001
0.072632112 -0.32689583 1.5830001
0.076701067 -0.3266893 1.582
0.08076483 -0.32648283 1.5810001
0.084769696 -0.32606983 1.5790001
0.088820443 -0.3258633 1.5780001
0.092865989 -0.3256568 1.577
0.096967824 -0.3256568 1.577
0.10106966 -0.3256568 1.577
0.1052382 -0.3258633 1.5780001
0.10948122 -0.3262763 1.58
0.11373463 -0.3266893 1.582
0.11799847 -0.32710233 1.5840001
0.1222727 -0.32751533 1.5860001
0.12663704 -0.32813486 1.5890001
0.13101697 -0.32875437 1.5920001
0.13532762 -0.32916737 1.5940001
0.13973618 -0.3297869 1.5970001
0.14407022 -0.3301999 1.5990001
0.14776577 -0.32916737 1.5940001
0.15219775 -0.3297869 1.5970001
0.1566453 -0.3304064 1.6
0.16090746 -0.3306129 1.6010001
0.16517484 -0.3308194 1.6020001
0.16891886 -0.32999337 1.598
0.17318363 -0.3301999 1.5990001
0.1773427 -0.3301999 1.5990001
0.18150176 -0.3301999 1.5990001
0.18566081 -0.3301999 1.5990001
0.18970115 -0.32999337 1.598
0.19385761 -0.32999337 1.598
0.19801407 -0.32999337 1.598
0.20217052 -0.32999337 1.598
0.20619789 -0.3297869 1.5970001
0.21035172 -0.3297869 1.5970001
0.2145056 -0.3297869 1.5970001
0.21865946 -0.3297869 1.5970001
0.22295281 -0.32999337 1.598
0.2265408 -0.32916737 1.5940001
0.23054212 -0.32896087 1.5930001
0.2348329 -0.32916737 1.5940001
0.23882903 -0.32896087 1.5930001
0.24358258 -0.3297869 1.5970001
0.2475813 -0.32958037 1.5960001
0.25141713 -0.32916737 1.5940001
0.25540283 -0.32896087 1.5930001
0.25938338 -0.32875437 1.5920001
0.26319316 -0.32834134 1.59
0.26699254 -0.32792833 1.5880001
0.27095225 -0.32772186 1.5870001
0.27490678 -0.32751533 1.5860001
0.27903199 -0.32751533 1.5860001
0.28297871 -0.32730883 1.585
0.28710133 -0.32730883 1.585
0.29140773 -0.32751533 1.5860001
0.295533 -0.32751533 1.5860001
0.29984719 -0.32772186 1.5870001
0.30435809 -0.32813486 1.5890001
0.30849117 -0.32813486 1.5890001
0.31282091 -0.32834134 1.59
0.31715593 -0.32854787 1.5910001
0.32129419 -0.32854787 1.5910001
0.32604608 -0.32916737 1.5940001
0.32936352 -0.32834134 1.59
0.33328944 -0.32813486 1.5890001
0.33975831 -0.3304064 1.6
0.34349009 -0.32999337 1.598
0.34742898 -0.3297869 1.5970001
0.35136268 -0.32958037 1.5960001
0.35529119 -0.32937387 1.595
0.35921448 -0.32916737 1.5940001
0.3631326 -0.32896087 1.5930001
0.36750662 -0.32916737 1.5940001
0.37188581 -0.32937387 1.595
0.37603447 -0.32937387 1.595
0.38089821 -0.32999337 1.598
0.38553655 -0.3304064 1.6
0.38969824 -0.3304064 1.6
0.39435223 -0.3308194 1.6020001
0.39926535 -0.3314389 1.605
0.40394279 -0.33185193 1.6070001
0.40913847 -0.33267793 1.6110001
0.4138419 -0.33309093 1.613
0.41855574 -0.33350396 1.6150001
0.42301813 -0.33371046 1.6160001
0.42484212 -0.33185193 1.6070001
0.43008986 -0.33267793 1.6110001
0.43508884 -0.33329746 1.6140001
0.43983123 -0.33371046 1.6160001
0.44513366 -0.33453649 1.6200001
0.44934732 -0.33453649 1.6200001
0.45412093 -0.33494949 1.6220001
0.45833984 -0.33494949 1.6220001
0.46227351 -0.33474296 1.6210001
0.46620202 -0.33453649 1.6200001
0.46983495 -0.33412346 1.618
0.47345746 -0.33371046 1.6160001
0.47706956 -0.33329746 1.6140001
0.48067132 -0.33288446 1.6120001
0.48426262 -0.33247146 1.6100001
0.48814687 -0.33226493 1.6090001
0.49202597 -0.33205843 1.608
0.49589986 -0.33185193 1.6070001
0.4997685 -0.33164543 1.6060001
0.50394577 -0.33164543 1.6060001
0.50812304 -0.33164543 1.6060001
0.51230031 -0.33164543 1.6060001
0.51679921 -0.33185193 1.6070001
0.52130324 -0.33205843 1.608
0.52581251 -0.33226493 1.6090001
0.53032702 -0.33247146 1.6100001
0.5348466 -0.33267793 1.6110001
0.53937149 -0.33288446 1.6120001
0.5439015 -0.33309093 1.613
0.54809701 -0.33309093 1.613
0.55229247 -0.33309093 1.613
0.55614299 -0.33288446 1.6120001
0.55998826 -0.33267793 1.6110001
0.5627777 -0.33185193 1.6070001
0.56872159 -0.33288446 1.6120001
0.5722037 -0.33247146 1.6100001
0.57567531 -0.33205843 1.608
0.57913655 -0.33164543 1.6060001
0.58222419 -0.3310259 1.603
0.3851119 -0.20030887 0.97000003
0.38803455 -0.20051539 0.97100008
0.38701338 -0.19741783 0.95600003
0.39031482 -0.19783083 0.95800006
0.38782465 -0.19287473 0.93400002
0.38900054 -0.19225523 0.93100005
0.3910017 -0.19204873 0.93000007
0.39215156 -0.19142921 0.92700005
0.39371145 -0.1910162 0.92500007
0.39526093 -0.19060318 0.92300004
0.39680004 -0.19019018 0.92100006
0.39832869 -0.18977717 0.91900003
0.399847 -0.18936417 0.91700006
0.40179351 -0.18915766 0.91600007
0.40373477 -0.18895115 0.91500002
0.40567091 -0.18874465 0.91400003
0.40804824 -0.18874465 0.91400003
0.4104256 -0.18874465 0.91400003
0.41280296 -0.18874465 0.91400003
0.4151803 -0.18874465 0.91400003
0.41801447 -0.18895115 0.91500002
0.42039445 -0.18895115 0.91500002
0.42323646 -0.18915766 0.91600007
0.42608365 -0.18936417 0.91700006
0.42893606 -0.18957067 0.91800004
0.43179366 -0.18977717 0.91900003
0.43465644 -0.18998367 0.92000002
0.43704939 -0.18998367 0.92000002
0.43944237 -0.18998367 0.92000002
0.44183531 -0.18998367 0.92000002
0.44422823 -0.18998367 0.92000002
0.44662121 -0.18998367 0.92000002
0.44901416 -0.18998367 0.92000002
0.4514071 -0.18998367 0.92000002
0.45330682 -0.18977717 0.91900003
0.45569718 -0.18977717 0.91900003
0.4580875 -0.18977717 0.91900003
0.45997682 -0.18957067 0.91800004
0.46186092 -0.18936417 0.91700006
-1.2927456 -0.49833885 2.444
-1.2879677 -0.49895054 2.447
-1.2821267 -0.49915448 2.4480002
-1.2762805 -0.49935839 2.4490001
-1.270429 -0.49956226 2.45
-1.2640566 -0.49956226 2.45
-1.256144 -0.49895054 2.447
-1.248247 -0.49833885 2.444
-1.2403657 -0.49772716 2.4410002
-1.2314888 -0.49670762 2.4360001
-1.2231411 -0.49589202 2.4320002
-1.213313 -0.49446473 2.4250002
-1.204019 -0.49324128 2.4190001
-1.1912904 -0.49059054 2.4060001
-1.1815846 -0.48916325 2.3990002
-1.1724051 -0.4879398 2.3930001
-1.1632568 -0.48671639 2.3870001
-1.1492925 -0.48345393 2.3710001
-1.1455361 -0.48447347 2.3760002
-1.1369584 -0.48345393 2.3710001
-1.1293606 -0.48284221 2.368
-1.1208297 -0.48182273 2.3630002
-1.1127965 -0.48100713 2.3590002
-1.1047841 -0.48019147 2.355
-1.0972592 -0.47957975 2.352
-1.0892857 -0.47876415 2.348
-1.082256 -0.47835639 2.3460002
-1.0756952 -0.47815245 2.345
-1.0691396 -0.47794855 2.3440001
-1.0630429 -0.47794855 2.3440001
-1.056946 -0.47794855 2.3440001
-1.0508491 -0.47794855 2.3440001
-1.0447524 -0.47794855 2.3440001
-1.0399848 -0.47856027 2.3470001
-1.0343207 -0.47876415 2.348
-0.73269767 -0.35377166 1.7350001
-0.72734541 -0.35336384 1.733
-0.72242075 -0.35315996 1.7320001
-0.70092118 -0.34479994 1.6910001
-0.69734663 -0.34520772 1.6930001
-0.6888501 -0.34316871 1.6830001
-0.68243909 -0.3421492 1.6780001
-0.67726636 -0.34174138 1.6760001
-0.67170256 -0.34112966 1.6730001
-0.66615427 -0.34051797 1.6700001
-0.66022539 -0.33970237 1.6660001
-0.65431732 -0.33888674 1.6620001
-0.64842999 -0.33807114 1.6580001
-0.64256352 -0.33725551 1.654
-0.63671786 -0.33643991 1.6500001
-0.63089293 -0.33562428 1.646
-0.62470824 -0.33460477 1.641
-0.61854947 -0.33358526 1.636
-0.60978836 -0.33113843 1.6240001
-0.60332698 -0.32991499 1.618
-0.59578598 -0.32807988 1.6090001
-0.59307158 -0.32889548 1.613
-0.59143174 -0.33032283 1.6200001
-0.58178079 -0.32726425 1.605
-0.57904565 -0.32807988 1.6090001
-0.56485683 -0.32237059 1.5810001
-0.55648845 -0.31992376 1.5690001
-0.53902853 -0.31217542 1.531
-0.53364843 -0.31135982 1.5270001
-0.5279423 -0.31034032 1.5220001
-0.5260492 -0.31156376 1.5280001
-0.52207476 -0.31156376 1.5280001
-0.51640505 -0.31054422 1.5230001
-0.51479894 -0.31197155 1.5300001
-0.51315641 -0.31339887 1.5370001
-0.51081496 -0.31441838 1.5420001
-0.50844753 -0.31543788 1.5470001
-0.50638008 -0.31666133 1.5530001
-0.50428146 -0.31788471 1.559
-0.50343513 -0.31992376 1.5690001
-0.50126362 -0.32114717 1.575
-0.49874532 -0.32216668 1.58
-0.49901855 -0.32502133 1.5940001
-0.50294441 -0.33032283 1.6200001
-0.50981367 -0.33766332 1.6560001
-0.51496929 -0.34398431 1.687
-0.52177966 -0.35152873 1.7240001
-0.53469867 -0.3633551 1.7820001
-0.54077196 -0.37069559 1.8180001
-0.55638814 -0.38476491 1.8870001
-0.5684306 -0.39659128 1.9450001
-0.57988179 -0.40821373 2.0020001
-0.58299893 -0.41412693 2.0310001
-0.5774318 -0.41392305 2.0300002
-0.57130617 -0.41331133 2.0270002
-0.56519616 -0.41269964 2.0240002
-0.56076151 -0.41331133 2.0270002
-0.55494112 -0.41290352 2.0250001
-0.54261649 -0.40760204 1.9990001
-0.40729371 -0.32461354 1.5920001
-0.40289959 -0.32440963 1.5910001
-0.39800942 -0.32379791 1.5880001
-0.39338291 -0.32339013 1.5860001
-0.38631248 -0.3209433 1.5740001
-0.38173276 -0.32053545 1.572
-0.37908533 -0.3217589 1.5780001
-0.37450564 -0.32135108 1.5760001
-0.37017137 -0.32114717 1.575
-0.36584234 -0.3209433 1.5740001
-0.36151844 -0.32073936 1.5730001
-0.35719979 -0.32053545 1.572
-0.35311097 -0.32053545 1.572
-0.34902212 -0.32053545 1.572
-0.34471387 -0.32033157 1.5710001
-0.34062767 -0.32033157 1.5710001
-0.3363272 -0.32012767 1.5700001
-0.33351329 -0.32135108 1.5760001
-0.32899603 -0.3209433 1.5740001
-0.32448915 -0.32053545 1.572
-0.32019651 -0.32033157 1.5710001
-0.31590906 -0.32012767 1.5700001
-0.31142819 -0.31971985 1.5680001
-0.30734977 -0.31971985 1.5680001
-0.30307794 -0.31951594 1.567
-0.29900208 -0.31951594 1.567
-0.29492629 -0.31951594 1.567
-0.29122168 -0.31992376 1.5690001
-0.28512755 -0.31768084 1.5580001
-0.28089473 -0.31747693 1.557
-0.27666712 -0.31727302 1.5560001
-0.2726199 -0.31727302 1.5560001
-0.26840007 -0.31706911 1.5550001
-0.26418546 -0.31686521 1.554
-0.25997603 -0.31666133 1.5530001
-0.25593665 -0.31666133 1.5530001
-0.251735 -0.31645739 1.552
-0.24769822 -0.31645739 1.552
-0.2436614 -0.31645739 1.552
-0.239779 -0.31666133 1.5530001
-0.23604318 -0.31706911 1.5550001
-0.23214777 -0.31727302 1.5560001
-0.23000626 -0.31992376 1.5690001
-0.22606924 -0.32012767 1.5700001
-0.22212701 -0.32033157 1.5710001
-0.21804076 -0.32033157 1.5710001
-0.21409072 -0.32053545 1.572
-0.21013549 -0.32073936 1.5730001
-0.20643701 -0.32135108 1.5760001
-0.20259456 -0.3217589 1.5780001
-0.19874169 -0.32216668 1.58
-0.19487841 -0.3225745 1.582
-0.19100475 -0.32298231 1.5840001
-0.18688472 -0.32298231 1.5840001
-0.18288004 -0.32318619 1.585
-0.17751682 -0.3209433 1.5740001
-0.1733126 -0.32073936 1.5730001
-0.16911358 -0.32053545 1.572
-0.16491978 -0.32033157 1.5710001
-0.16042404 -0.31951594 1.567
-0.15624845 -0.31931207 1.5660001
-0.15188369 -0.31870034 1.5630001
-0.14753456 -0.31808862 1.5600001
-0.14320102 -0.31747693 1.557
-0.13897246 -0.31706911 1.5550001
-0.13475432 -0.31666133 1.5530001
-0.13054657 -0.31625351 1.5510001
-0.12634923 -0.3158457 1.549
-0.12224124 -0.31564179 1.5480001
-0.11821484 -0.31564179 1.5480001
-0.11411467 -0.31543788 1.5470001
-0.11009086 -0.31543788 1.5470001
-0.10613562 -0.31564179 1.5480001
-0.10217518 -0.3158457 1.549
-0.098209538 -0.31604961 1.5500001
-0.094299443 -0.31645739 1.552
-0.090378948 -0.31686521 1.554
-0.086448066 -0.31727302 1.5560001
-0.082506761 -0.31768084 1.5580001
-0.078555048 -0.31808862 1.5600001
-0.074640699 -0.31870034 1.5630001
-0.070710741 -0.31931207 1.5660001
-0.066722624 -0.31971985 1.5680001
-0.062724099 -0.32012767 1.5700001
-0.058715172 -0.32053545 1.572
-0.054695841 -0.3209433 1.5740001
-0.050666101 -0.32135108 1.5760001
-0.046625964 -0.3217589 1.5780001
-0.042844884 -0.32420573 1.59
-0.038660545 -0.32379791 1.5880001
-0.034443121 -0.32298231 1.5840001
-0.030150786 -0.32114717 1.575
-0.026219577 -0.32318619 1.585
-0.022096934 -0.32318619 1.585
-0.017974289 -0.32318619 1.585
-0.013851644 -0.32318619 1.585
-0.0097228633 -0.32298231 1.5840001
-0.0056028212 -0.32298231 1.5840001
-0.0014809057 -0.3225745 1.582
0.0026322701 -0.32237059 1.5810001
0.0067402441 -0.32216668 1.58
0.010836149 -0.3217589 1.5780001
0.014940585 -0.3217589 1.5780001
0.019032953 -0.32155496 1.577
0.022958746 -0.31910816 1.5650001
0.027253896 -0.3217589 1.5780001
0.031378206 -0.3219628 1.5790001
0.035215564 -0.31951594 1.567
0.039642427 -0.32237059 1.5810001
0.043782342 -0.3225745 1.582
0.047927458 -0.3227784 1.5830001
0.052077781 -0.32298231 1.5840001
0.056197822 -0.32298231 1.5840001
0.060317867 -0.32298231 1.5840001
0.064437911 -0.32298231 1.5840001
0.068557955 -0.32298231 1.5840001
0.072678 -0.32298231 1.5840001
0.076749556 -0.3227784 1.5830001
0.080815911 -0.3225745 1.582
0.084823377 -0.32216668 1.58
0.088876732 -0.3219628 1.5790001
0.092983767 -0.3219628 1.5790001
0.097090811 -0.3219628 1.5790001
0.10119785 -0.3219628 1.5790001
0.10537158 -0.32216668 1.58
0.1096198 -0.3225745 1.582
0.11387842 -0.32298231 1.5840001
0.11822195 -0.32359403 1.5870001
0.12250399 -0.32400182 1.5890001
0.12687613 -0.32461354 1.5920001
0.13126385 -0.32522523 1.595
0.13566722 -0.32583693 1.598
0.13999866 -0.32624474 1.6
0.14325932 -0.32420573 1.59
0.14767307 -0.32481742 1.5930001
0.15248364 -0.32624474 1.6
0.1564495 -0.32583693 1.598
0.16070646 -0.32604086 1.5990001
0.16538106 -0.32706037 1.6040001
0.16913028 -0.32624474 1.6
0.17340025 -0.32644865 1.6010001
0.17745359 -0.32624474 1.6
0.18161526 -0.32624474 1.6
0.18577692 -0.32624474 1.6
0.18981987 -0.32604086 1.5990001
0.19397892 -0.32604086 1.5990001
0.19801407 -0.32583693 1.598
0.20204403 -0.32563305 1.5970001
0.20619789 -0.32563305 1.5970001
0.21035172 -0.32563305 1.5970001
0.2146399 -0.32583693 1.598
0.21879637 -0.32583693 1.598
0.22295281 -0.32583693 1.598
0.2272514 -0.32604086 1.5990001
0.23068686 -0.32502133 1.5940001
0.23498021 -0.32522523 1.595
0.23897895 -0.32502133 1.5940001
0.24373509 -0.32583693 1.598
0.24773644 -0.32563305 1.5970001
0.25157484 -0.32522523 1.595
0.25556317 -0.32502133 1.5940001
0.25954628 -0.32481742 1.5930001
0.26335868 -0.32440963 1.5910001
0.26732877 -0.32420573 1.59
0.27112299 -0.32379791 1.5880001
0.27525344 -0.32379791 1.5880001
0.27920794 -0.32359403 1.5870001
0.2833358 -0.32359403 1.5870001
0.28746364 -0.32359403 1.5870001
0.2915915 -0.32359403 1.5870001
0.29590568 -0.32379791 1.5880001
0.30041397 -0.32420573 1.59
0.30474117 -0.32440963 1.5910001
0.3090736 -0.32461354 1.5920001
0.31341115 -0.32481742 1.5930001
0.31775397 -0.32502133 1.5940001
0.3227078 -0.32583693 1.598
0.32604608 -0.32502133 1.5940001
0.33019212 -0.32502133 1.5940001
0.33664539 -0.32726425 1.605
0.3406077 -0.32706037 1.6040001
0.34434989 -0.32665256 1.6020001
0.34829918 -0.32644865 1.6010001
0.35224327 -0.32624474 1.6
0.35618222 -0.32604086 1.5990001
0.36011589 -0.32583693 1.598
0.36404443 -0.32563305 1.5970001
0.36842883 -0.32583693 1.598
0.37258527 -0.32583693 1.598
0.3769775 -0.32604086 1.5990001
0.38137493 -0.32624474 1.6
0.38601851 -0.32665256 1.6020001
0.39067248 -0.32706037 1.6040001
0.39533687 -0.32746816 1.6060001
0.40001166 -0.32787597 1.608
0.40494823 -0.32848769 1.6110001
0.40990037 -0.32909939 1.6140001
0.41461161 -0.3295072 1.6160001
0.41933319 -0.32991499 1.618
0.42406523 -0.33032283 1.6200001
0.42563525 -0.32828379 1.6100001
0.43089077 -0.32909939 1.6140001
0.43589756 -0.32971111 1.6170001
0.44064775 -0.33011889 1.6190001
0.44568318 -0.33073062 1.6220001
0.4501794 -0.33093449 1.623
0.45468086 -0.33113843 1.6240001
0.45890498 -0.33113843 1.6240001
0.46284387 -0.33093449 1.623
0.46677756 -0.33073062 1.6220001
0.47041574 -0.33032283 1.6200001
0.4740434 -0.32991499 1.618
0.47766072 -0.3295072 1.6160001
0.48126766 -0.32909939 1.6140001
0.48486418 -0.3286916 1.6120001
0.48875362 -0.32848769 1.6110001
0.49263796 -0.32828379 1.6100001
0.496517 -0.32807988 1.6090001
0.50070208 -0.32807988 1.6090001
0.50488716 -0.32807988 1.6090001
0.50907224 -0.32807988 1.6090001
0.51325727 -0.32807988 1.6090001
0.51744241 -0.32807988 1.6090001
0.52195162 -0.32828379 1.6100001
0.52646607 -0.32848769 1.6110001
0.53098577 -0.3286916 1.6120001
0.5355106 -0.32889548 1.613
0.54004067 -0.32909939 1.6140001
0.54457593 -0.32930329 1.6150001
0.54877669 -0.32930329 1.6150001
0.55263489 -0.32909939 1.6140001
0.55648792 -0.32889548 1.613
0.55998826 -0.32848769 1.6110001
0.56312788 -0.32787597 1.608
0.56660473 -0.32746816 1.6060001
0.57184827 -0.32807988 1.6090001
0.57531732 -0.32767209 1.6070001
0.57841533 -0.32706037 1.6040001
0.58186102 -0.32665256 1.6020001
0.58493042 -0.32604086 1.5990001
0.38163316 -0.19860148 0.97400004
0.38258892 -0.19778588 0.97000003
0.3851119 -0.19778588 0.97000003
0.3876349 -0.19778588 0.97000003
0.38573346 -0.19554295 0.95900005
0.38701338 -0.19493124 0.95600003
0.38949996 -0.19493124 0.95600003
0.38870633 -0.19330002 0.94800007
0.38869634 -0.19207659 0.94200003
0.38865513 -0.19085318 0.93600005
0.38983619 -0.19024147 0.93300003
0.39142212 -0.18983367 0.93100005
0.39257458 -0.18922195 0.92800003
0.39371145 -0.18861026 0.92500007
0.39526093 -0.18820244 0.92300004
0.39680004 -0.18779464 0.92100006
0.39832869 -0.18738683 0.91900003
0.399847 -0.18697903 0.91700006
0.40223214 -0.18697903 0.91700006
0.40417606 -0.18677512 0.91600007
0.40611476 -0.18657121 0.91500002
0.40849468 -0.18657121 0.91500002
0.41087463 -0.18657121 0.91500002
0.41325459 -0.18657121 0.91500002
0.41608882 -0.18677512 0.91600007
0.41892818 -0.18697903 0.91700006
0.42177281 -0.18718293 0.91800004
0.4246226 -0.18738683 0.91900003
0.42747757 -0.18759073 0.92000002
0.42987055 -0.18759073 0.92000002
0.43273336 -0.18779464 0.92100006
0.43560135 -0.18799853 0.92200005
0.43799952 -0.18799853 0.92200005
0.44087532 -0.18820244 0.92300004
0.44327608 -0.18820244 0.92300004
0.44567683 -0.18820244 0.92300004
0.44807759 -0.18820244 0.92300004
0.45047835 -0.18820244 0.92300004
0.45238844 -0.18799853 0.92200005
0.45478663 -0.18799853 0.92200005
0.45718476 -0.18799853 0.92200005
0.45958292 -0.18799853 0.92200005
0.46148002 -0.18779464 0.92100006
0.4633719 -0.18759073 0.92000002
-1.2948614 -0.49278712 2.4480002
-1.2900732 -0.49339104 2.4510002
-1.2842216 -0.49359232 2.4520001
-1.278365 -0.49379361 2.4530001
-1.2725034 -0.49399495 2.4540002
-1.2656044 -0.49379361 2.4530001
-1.257684 -0.49318969 2.45
-1.2492685 -0.49238452 2.4460001
-1.2408738 -0.49157932 2.4420002
-1.2314888 -0.4903715 2.4360001
-1.2226381 -0.48936501 2.4310002
-1.2123122 -0.48775455 2.4230001
-1.2025257 -0.48634547 2.4160001
-1.1912904 -0.48433244 2.4060001
-1.1815846 -0.48292333 2.3990002
-1.1724051 -0.4817155 2.3930001
-1.1632568 -0.4805077 2.3870001
-1.1551093 -0.4797025 2.3830001
-1.1479467 -0.47929987 2.381
-1.1379174 -0.47768947 2.3730001
-1.1269759 -0.47567645 2.3630002
-1.1189324 -0.47487128 2.3590002
-1.1109096 -0.47406602 2.355
-1.1029077 -0.47326082 2.3510001
-1.0953931 -0.47265691 2.348
-1.087894 -0.47205299 2.345
-1.0808721 -0.47165042 2.3430002
-1.0738603 -0.47124779 2.3410001
-1.0677713 -0.47124779 2.3410001
-1.0621357 -0.47144911 2.342
-1.0560441 -0.47144911 2.342
-1.0499525 -0.47144911 2.342
-1.0438609 -0.47144911 2.342
-0.71299082 -0.33778465 1.6780001
-0.71327168 -0.33999896 1.6890001
-0.70510119 -0.33818725 1.6800001
-0.70365113 -0.33959633 1.687
-0.69967771 -0.33979765 1.6880001
-0.69405144 -0.33919373 1.6850001
-0.68966872 -0.33919373 1.6850001
-0.68284577 -0.33798593 1.6790001
-0.67605406 -0.33677813 1.6730001
-0.67089957 -0.33637553 1.6710001
-0.66495758 -0.33557031 1.6670001
-0.65943277 -0.33496639 1.664
-0.65352994 -0.33416119 1.6600001
-0.64725673 -0.33315468 1.6550001
-0.64139801 -0.33234948 1.651
-0.63517427 -0.33134297 1.646
-0.62897652 -0.33033645 1.641
-0.62280476 -0.32932994 1.636
-0.6159029 -0.32792082 1.6290001
-0.60791093 -0.32590783 1.6190001
-0.60108966 -0.32449871 1.6120001
-0.59467512 -0.32329088 1.6060001
-0.58755636 -0.32168049 1.598
-0.5815745 -0.32067397 1.5930001
-0.57670611 -0.32027137 1.5910001
-0.57112831 -0.31946617 1.5870001
-0.56414229 -0.31785575 1.5790001
-0.54513878 -0.30940107 1.5370001
-0.54114103 -0.30940107 1.5370001
-0.53050315 -0.30557632 1.5180001
-0.52898294 -0.30698544 1.5250001
-0.52467209 -0.30678412 1.524
-0.52036643 -0.30658284 1.5230001
-0.51674408 -0.30678412 1.524
-0.51479894 -0.30799195 1.5300001
-0.51148707 -0.30839455 1.5320001
-0.50915861 -0.30940107 1.5370001
-0.50713289 -0.31060889 1.5430001
-0.50474977 -0.31161538 1.5480001
-0.50266415 -0.31282318 1.554
-0.50247252 -0.31523883 1.5660001
-0.5006271 -0.31664792 1.5730001
-0.49811399 -0.31765443 1.5780001
-0.49870548 -0.32067397 1.5930001
-0.50201303 -0.32550523 1.6170001
-0.50858223 -0.33255079 1.6520001
-0.51252729 -0.33798593 1.6790001
-0.52359557 -0.34825236 1.7300001
-0.53439862 -0.35851875 1.7810001
-0.53749996 -0.36375257 1.807
-0.54901683 -0.3748242 1.8620001
-0.57381326 -0.40240255 1.9990001
-0.56832939 -0.40220127 1.9980001
-0.56313252 -0.40220127 1.9980001
-0.55737716 -0.40179864 1.9960001
-0.55356872 -0.40280518 2.0010002
-0.5456236 -0.40079212 1.9910001
-0.54234511 -0.40220127 1.9980001
-0.40703785 -0.32027137 1.5910001
-0.40264633 -0.32007006 1.59
-0.39800942 -0.31966746 1.5880001
-0.39090258 -0.31725183 1.5760001
-0.38631248 -0.31684923 1.5740001
-0.38391826 -0.31825835 1.5810001
-0.37956578 -0.31805703 1.58
-0.3749809 -0.31765443 1.5780001
-0.37064141 -0.31745312 1.577
-0.36607474 -0.31705052 1.575
-0.36174828 -0.31684923 1.5740001
-0.357427 -0.31664792 1.5730001
-0.35311097 -0.31644663 1.572
-0.34902212 -0.31644663 1.572
-0.34471387 -0.31624532 1.5710001
-0.34041083 -0.31604403 1.5700001
-0.33611298 -0.31584275 1.5690001
-0.33330166 -0.31705052 1.575
-0.32899603 -0.31684923 1.5740001
-0.32448915 -0.31644663 1.572
-0.32019651 -0.31624532 1.5710001
-0.31570786 -0.31584275 1.5690001
-0.31142819 -0.31564143 1.5680001
-0.30715376 -0.31544012 1.567
-0.30307794 -0.31544012 1.567
-0.29900208 -0.31544012 1.567
-0.29492629 -0.31544012 1.567
-0.28899434 -0.31342709 1.557
-0.28476155 -0.31322581 1.5560001
-0.28071433 -0.31322581 1.5560001
-0.27666712 -0.31322581 1.5560001
-0.2726199 -0.31322581 1.5560001
-0.26857269 -0.31322581 1.5560001
-0.26452547 -0.31322581 1.5560001
-0.26031083 -0.31302449 1.5550001
-0.25626624 -0.31302449 1.5550001
-0.2520594 -0.31282318 1.554
-0.24801742 -0.31282318 1.554
-0.2439754 -0.31282318 1.554
-0.24024218 -0.31322581 1.5560001
-0.23649858 -0.31362841 1.5580001
-0.23274453 -0.314031 1.5600001
-0.23059264 -0.31664792 1.5730001
-0.22664522 -0.31684923 1.5740001
-0.22269256 -0.31705052 1.575
-0.21845713 -0.31684923 1.5740001
-0.21449929 -0.31705052 1.575
-0.21066983 -0.31745312 1.577
-0.20682998 -0.31785575 1.5790001
-0.2031081 -0.31845963 1.582
-0.19924484 -0.31886226 1.5840001
-0.19537117 -0.31926486 1.5860001
-0.19148709 -0.31966746 1.5880001
-0.18735664 -0.31966746 1.5880001
-0.18345694 -0.32007006 1.59
-0.17943409 -0.32027137 1.5910001
-0.17397369 -0.31785575 1.5790001
-0.16965148 -0.31745312 1.577
-0.16544467 -0.31725183 1.5760001
-0.16093592 -0.31644663 1.572
-0.15674733 -0.31624532 1.5710001
-0.15236957 -0.31564143 1.5680001
-0.14800742 -0.31503752 1.5650001
-0.14375286 -0.31463492 1.5630001
-0.13941932 -0.314031 1.5600001
-0.13518816 -0.31362841 1.5580001
-0.13096741 -0.31322581 1.5560001
-0.12675706 -0.31282318 1.554
-0.12263608 -0.31262189 1.5530001
-0.1185203 -0.31242058 1.552
-0.1144835 -0.31242058 1.552
-0.11044668 -0.31242058 1.552
-0.10640987 -0.31242058 1.552
-0.10243903 -0.31262189 1.5530001
-0.098462977 -0.31282318 1.554
-0.094542488 -0.31322581 1.5560001
-0.090611592 -0.31362841 1.5580001
-0.086670294 -0.314031 1.5600001
-0.082718581 -0.3144336 1.562
-0.078756474 -0.31483623 1.5640001
-0.074831717 -0.31544012 1.567
-0.070891351 -0.31604403 1.5700001
-0.066892833 -0.31644663 1.572
-0.062883906 -0.31684923 1.5740001
-0.058864575 -0.31725183 1.5760001
-0.054834839 -0.31765443 1.5780001
-0.050794695 -0.31805703 1.58
-0.046744153 -0.31845963 1.582
-0.042656261 -0.31866094 1.5830001
-0.038757931 -0.32047269 1.5920001
-0.034573585 -0.32007006 1.59
-0.030208217 -0.31765443 1.5780001
-0.026285747 -0.31986877 1.5890001
-0.0221527 -0.31986877 1.5890001
-0.018030992 -0.32007006 1.59
-0.013895341 -0.32007006 1.59
-0.0097535541 -0.31986877 1.5890001
-0.0056169694 -0.31966746 1.5880001
-0.0014855863 -0.31946617 1.5870001
0.002640595 -0.31926486 1.5860001
0.0067615737 -0.31906354 1.585
0.01087735 -0.31886226 1.5840001
0.014987925 -0.31866094 1.5830001
0.019093297 -0.31845963 1.582
0.023208138 -0.31845963 1.582
0.02732298 -0.31845963 1.582
0.031457692 -0.31866094 1.5830001
0.035552662 -0.31845963 1.582
0.039717652 -0.31886226 1.5840001
0.043837693 -0.31886226 1.5840001
0.047988012 -0.31906354 1.585
0.052110657 -0.31906354 1.585
0.056233298 -0.31906354 1.585
0.060355943 -0.31906354 1.585
0.064478584 -0.31906354 1.585
0.068557955 -0.31886226 1.5840001
0.072678 -0.31886226 1.5840001
0.076749556 -0.31866094 1.5830001
0.080815911 -0.31845963 1.582
0.084823377 -0.31805703 1.58
0.088933021 -0.31805703 1.58
0.093042657 -0.31805703 1.58
0.097152293 -0.31805703 1.58
0.10126193 -0.31805703 1.58
0.10550496 -0.31845963 1.582
0.10975838 -0.31886226 1.5840001
0.11402221 -0.31926486 1.5860001
0.11837094 -0.31986877 1.5890001
0.12265818 -0.32027137 1.5910001
0.12703551 -0.32087529 1.5940001
0.13151075 -0.32168049 1.598
0.13592191 -0.32228437 1.6010001
0.14026116 -0.32268697 1.603
0.14361973 -0.32087529 1.5940001
0.14804389 -0.3214792 1.5970001
0.15229304 -0.32168049 1.598
0.15674321 -0.32228437 1.6010001
0.16090746 -0.32228437 1.6010001
0.16517484 -0.32248569 1.6020001
0.1693417 -0.32248569 1.6020001
0.17340025 -0.32228437 1.6010001
0.1775645 -0.32228437 1.6010001
0.18161526 -0.32208309 1.6
0.18577692 -0.32208309 1.6
0.18970115 -0.32168049 1.598
0.19385761 -0.32168049 1.598
0.19789016 -0.3214792 1.5970001
0.20204403 -0.3214792 1.5970001
0.20606877 -0.32127789 1.5960001
0.21035172 -0.3214792 1.5970001
0.2145056 -0.3214792 1.5970001
0.21865946 -0.3214792 1.5970001
0.22295281 -0.32168049 1.598
0.2272514 -0.32188177 1.5990001
0.23141047 -0.32188177 1.5990001
0.23556951 -0.32188177 1.5990001
0.23972858 -0.32188177 1.5990001
0.24388762 -0.32188177 1.5990001
0.24789156 -0.32168049 1.598
0.25173256 -0.32127789 1.5960001
0.25572348 -0.32107657 1.595
0.25970921 -0.32087529 1.5940001
0.26352423 -0.32047269 1.5920001
0.26749691 -0.32027137 1.5910001
0.27129373 -0.31986877 1.5890001
0.27542678 -0.31986877 1.5890001
0.27938387 -0.31966746 1.5880001
0.28351432 -0.31966746 1.5880001
0.28782591 -0.31986877 1.5890001
0.29195896 -0.31986877 1.5890001
0.29627833 -0.32007006 1.59
0.30079186 -0.32047269 1.5920001
0.30512425 -0.32067397 1.5930001
0.30946186 -0.32087529 1.5940001
0.31400138 -0.32127789 1.5960001
0.31815264 -0.32127789 1.5960001
0.32331362 -0.32228437 1.6010001
0.32665971 -0.3214792 1.5970001
0.33081359 -0.3214792 1.5970001
0.33727464 -0.32369348 1.608
0.34124476 -0.3234922 1.6070001
0.34520969 -0.32329088 1.6060001
0.34916937 -0.32308957 1.605
0.35290375 -0.32268697 1.603
0.35685048 -0.32248569 1.6020001
0.36079195 -0.32228437 1.6010001
0.36472827 -0.32208309 1.6
0.36888993 -0.32208309 1.6
0.37305158 -0.32208309 1.6
0.37485567 -0.32007006 1.59
0.37899134 -0.32007006 1.59
0.38650042 -0.32288828 1.6040001
0.39115959 -0.32329088 1.6060001
0.3958292 -0.32369348 1.608
0.40050921 -0.32409611 1.6100001
0.40545094 -0.3247 1.613
0.41040832 -0.32530391 1.6160001
0.41512474 -0.32570651 1.618
0.4201107 -0.32631043 1.6210001
0.42485049 -0.32671303 1.623
0.42669272 -0.32490131 1.6140001
0.43169168 -0.32550523 1.6170001
0.43670627 -0.32610914 1.6200001
0.44146428 -0.32651174 1.6220001
0.44650751 -0.32711563 1.6250001
0.4507342 -0.32711563 1.6250001
0.45524082 -0.32731694 1.626
0.45947012 -0.32731694 1.626
0.46341425 -0.32711563 1.6250001
0.46735314 -0.32691434 1.6240001
0.4709965 -0.32651174 1.6220001
0.4746294 -0.32610914 1.6200001
0.47825187 -0.32570651 1.618
0.48186404 -0.32530391 1.6160001
0.48576653 -0.32510263 1.6150001
0.48936039 -0.3247 1.613
0.49324992 -0.32449871 1.6120001
0.49744278 -0.32449871 1.6120001
0.50132442 -0.3242974 1.6110001
0.50551474 -0.3242974 1.6110001
0.50970501 -0.3242974 1.6110001
0.51389527 -0.3242974 1.6110001
0.51808554 -0.3242974 1.6110001
0.5226 -0.32449871 1.6120001
0.52711964 -0.3247 1.613
0.53164458 -0.32490131 1.6140001
0.53617465 -0.32510263 1.6150001
0.54104447 -0.32550523 1.6170001
0.54525036 -0.32550523 1.6170001
0.54911643 -0.32530391 1.6160001
0.55297732 -0.32510263 1.6150001
0.55648792 -0.3247 1.613
0.55998826 -0.3242974 1.6110001
0.56312788 -0.32369348 1.608
0.56554633 -0.32268697 1.603
0.57149285 -0.32369348 1.608
0.57460129 -0.32308957 1.605
