# .PCD v0.7 - Point Cloud Data file format
VERSION 0.7
FIELDS x y z
SIZE 4 4 4
TYPE F F F
COUNT 1 1 1
WIDTH 1519
HEIGHT 1
VIEWPOINT 0 0 0 1 0 0 0
POINTS 1519
DATA ascii
0.15431456 0.10418136 1.95
0.16191925 0.10583758 1.9810001
0.16673341 0.10562387 1.9770001
0.17222224 0.10583758 1.9810001
0.17773189 0.10605129 1.9850001
0.1831702 0.10621156 1.988
0.18871884 0.10642527 1.9920001
0.19419096 0.10658555 1.9950001
0.19967867 0.10674583 1.9980001
0.205182 0.10690611 2.0010002
0.21059579 0.10701295 2.003
0.21591224 0.10706639 2.0040002
0.22002012 0.10653212 1.9940001
0.22543129 0.10663897 1.9960001
0.23073734 0.1066924 1.9970001
0.23604859 0.10674583 1.9980001
0.24112354 0.1066924 1.9970001
0.24643999 0.10674583 1.9980001
0.2516357 0.10674583 1.9980001
0.25670284 0.1066924 1.9970001
0.26189595 0.1066924 1.9970001
0.26695529 0.10663897 1.9960001
0.27214578 0.10663897 1.9960001
0.2773363 0.10663897 1.9960001
0.28252679 0.10663897 1.9960001
0.28613168 0.10605129 1.9850001
0.29114684 0.10599785 1.9840001
0.29630613 0.10599785 1.9840001
0.30146542 0.10599785 1.9840001
0.30662471 0.10599785 1.9840001
0.31178403 0.10599785 1.9840001
0.31678355 0.10594442 1.983
0.32194024 0.10594442 1.983
0.32693201 0.105891 1.9820001
0.33208609 0.105891 1.9820001
0.33707002 0.10583758 1.9810001
0.34204879 0.10578416 1.9800001
0.34702232 0.10573073 1.9790001
0.35216859 0.10573073 1.9790001
0.35713431 0.1056773 1.978
0.36209488 0.10562387 1.9770001
0.3670502 0.10557044 1.9760001
0.37200037 0.10551702 1.9750001
0.37694532 0.10546359 1.9740001
0.38169149 0.10535675 1.9720001
0.38681957 0.10535675 1.9720001
0.39174891 0.10530331 1.9710001
0.3948608 0.10476905 1.9610001
0.39194638 0.08350537 1.5630001
0.39095297 0.080780625 1.5120001
0.39384019 0.080566913 1.508
0.39670661 0.080353215 1.5040001
0.39928582 0.080086082 1.4990001
0.3959218 0.078643575 1.4720001
0.39920649 0.078536719 1.47
0.4016583 0.078269586 1.465
0.40436089 0.078055881 1.4610001
0.40592515 0.077628471 1.4530001
0.41054955 0.077788748 1.4560001
0.4134821 0.077628471 1.4530001
0.41898358 0.077949032 1.4590001
0.42190832 0.077788748 1.4560001
0.4224785 0.077201061 1.4450001
0.42535117 0.077040777 1.442
0.42791077 0.076827079 1.4380001
0.43255076 0.076987356 1.4410001
0.43448132 0.076666795 1.4350001
0.43638071 0.076346233 1.429
0.43732503 0.075865403 1.4200001
0.43946475 0.07559827 1.4150001
0.44220486 0.075437993 1.4120001
0.44461364 0.075224288 1.4080001
0.44827506 0.075224288 1.4080001
0.44968963 0.074850298 1.401
0.45171499 0.074583165 1.396
0.45077869 0.073835202 1.3820001
0.44911206 0.072980382 1.3660001
0.45597804 0.07351464 1.376
0.4515408 0.07223241 1.3520001
0.45438343 0.072125554 1.35
0.457894 0.072125554 1.35
0.46072108 0.072018705 1.348
0.46422648 0.072018705 1.348
0.46842584 0.072125554 1.35
0.47263566 0.07223241 1.3520001
0.47615147 0.07223241 1.3520001
0.47966725 0.07223241 1.3520001
0.48246828 0.072125554 1.35
0.4866989 0.07223241 1.3520001
0.49021471 0.07223241 1.3520001
0.49409568 0.072285838 1.353
0.49761409 0.072285838 1.353
0.50113249 0.072285838 1.353
0.50465089 0.072285838 1.353
0.50854492 0.072339267 1.3540001
0.51244408 0.072392687 1.355
0.51596773 0.072392687 1.355
0.51987469 0.072446115 1.3560001
0.5237869 0.072499543 1.3570001
0.52848148 0.07265982 1.36
0.5328005 0.072766677 1.3620001
0.53752363 0.072926953 1.365
0.54265887 0.073140658 1.3690001
0.54781479 0.073354363 1.373
0.55419642 0.073728353 1.3800001
0.56021017 0.074048907 1.386
0.56584835 0.074316032 1.391
0.57233137 0.074690022 1.3980001
0.57802677 0.074957155 1.4030001
0.58374816 0.075224288 1.4080001
0.58782673 0.075277708 1.409
0.5923304 0.075384565 1.411
0.60106838 0.07602568 1.4230001
1.2254905 0.15311989 2.8660002
1.2359546 0.15349387 2.8730001
1.2438586 0.1535473 2.8740001
1.2530738 0.153761 2.878
1.258368 0.15349387 2.8730001
1.2803788 0.15525694 2.9060001
1.2879357 0.15525694 2.9060001
1.2954926 0.15525694 2.9060001
1.3034979 0.15531036 2.9070001
1.3128614 0.15552408 2.9110003
1.3236066 0.15589806 2.9180002
1.3280014 0.15552408 2.9110003
1.342912 0.1563789 2.927
1.3514464 0.15648575 2.9290001
1.3599912 0.15659261 2.9310002
1.3680795 0.15664603 2.9320002
1.375235 0.15659261 2.9310002
1.382385 0.15653917 2.9300001
1.3895299 0.15648575 2.9290001
1.3966697 0.15643233 2.9280002
1.4023653 0.1562186 2.924
1.4080402 0.15600491 2.9200001
1.4078766 0.15515009 2.904
1.4144535 0.15504324 2.9020002
1.41563 0.1543487 2.8890002
1.4344727 0.1555775 2.9120002
-1.1460774 0.11782434 2.1030002
-1.141151 0.11788037 2.1040001
-1.1383785 0.1181605 2.1090002
-1.1291338 0.1177683 2.102
-1.1225986 0.11765626 2.1000001
-1.1171377 0.11765626 2.1000001
-1.1111474 0.11760024 2.0990002
-1.1104299 0.11810447 2.108
-1.1054723 0.1181605 2.1090002
-1.0942507 0.1175442 2.098
-1.088276 0.11748818 2.0970001
-1.0833392 0.1175442 2.098
-1.0819937 0.11799242 2.1060002
-1.0775394 0.11810447 2.108
-1.0735832 0.11827255 2.1110001
-1.0701176 0.11849666 2.115
-1.0666312 0.11872077 2.1190002
-1.0641253 0.11905693 2.125
-1.0605922 0.11928104 2.1290002
-1.0590202 0.11972925 2.1370001
-1.0564209 0.12006541 2.1430001
-1.0532999 0.12034554 2.148
-1.0589327 0.12163416 2.171
-1.0542574 0.12174621 2.1730001
-1.0495718 0.12185827 2.1750002
-1.0443957 0.1219143 2.1760001
-1.0401692 0.12208237 2.1790001
-1.0349776 0.1221384 2.1800001
-1.0264757 0.12180223 2.174
-1.0194136 0.12163416 2.171
-1.013301 0.12157813 2.1700001
-1.0071938 0.12152211 2.1690001
-1.008018 0.12230648 2.1830001
-1.0028003 0.1223625 2.184
-0.99712098 0.1223625 2.184
-0.99098766 0.12230648 2.1830001
-0.98485953 0.12225046 2.1820002
-0.97873652 0.12219442 2.181
-0.97261882 0.1221384 2.1800001
-0.96650624 0.12208237 2.1790001
-0.95995796 0.12197032 2.177
-0.95210505 0.12169019 2.1720002
-0.94645685 0.12169019 2.1720002
-0.93907613 0.12146609 2.1680002
-0.93429935 0.12157813 2.1700001
-0.92994022 0.12174621 2.1730001
-0.92811769 0.12225046 2.1820002
-0.92244351 0.12225046 2.1820002
-0.91760951 0.1223625 2.184
-0.91151267 0.12230648 2.1830001
-0.90542096 0.12225046 2.1820002
-0.89892203 0.1221384 2.1800001
-0.89243358 0.12202635 2.1780002
-0.88636261 0.12197032 2.177
-0.88029695 0.1219143 2.1760001
-0.87463832 0.1219143 2.1760001
-0.86897969 0.1219143 2.1760001
-0.8641147 0.12202635 2.1780002
-0.858845 0.12208237 2.1790001
-0.85396165 0.12219442 2.181
-0.84440064 0.12163416 2.171
-0.8403005 0.12185827 2.1750002
-0.83579576 0.12202635 2.1780002
-0.83089423 0.1221384 2.1800001
-0.82560372 0.12219442 2.181
-0.82030815 0.12225046 2.1820002
-0.81463403 0.12225046 2.1820002
-0.80895978 0.12225046 2.1820002
-0.8032856 0.12225046 2.1820002
-0.79797697 0.12230648 2.1830001
-0.79230016 0.12230648 2.1830001
-0.79238886 0.12320291 2.1990001
-0.78917462 0.1235951 2.2060001
-0.78237259 0.12342701 2.2030001
-0.78616238 0.12493973 2.23
-0.77896363 0.12471563 2.2260001
-0.78324783 0.1263404 2.2550001
-0.77738386 0.1263404 2.2550001
-0.78109962 0.12790915 2.283
-0.77550232 0.12796518 2.2840002
-0.78000796 0.12970202 2.3150001
-0.77398789 0.12970202 2.3150001
-0.77692467 0.13121474 2.342
-0.77116364 0.13127077 2.3430002
-0.76507074 0.13127077 2.3430002
-0.75865388 0.13121474 2.342
-0.75192106 0.1311027 2.3400002
-0.74519849 0.13099062 2.3380001
-0.73880249 0.13093461 2.3370001
-0.72175163 0.12897366 2.302
-0.70799214 0.127573 2.2770002
-0.67841727 0.12432344 2.2190001
-0.6617341 0.12230648 2.1830001
-0.63922769 0.11916898 2.1270001
-0.62088555 0.11675983 2.0840001
-0.60129035 0.11407053 2.036
-0.57784671 0.11059688 1.9740001
-0.56749105 0.1095884 1.9560001
-0.56154197 0.10942031 1.9530001
-0.54991001 0.1081317 1.9300001
-0.54150319 0.10745938 1.9180001
-0.53036153 0.10622679 1.8960001
-0.52598536 0.10633885 1.8980001
-0.51281393 0.10465804 1.868
-0.50741237 0.10454599 1.8660001
-0.50148273 0.10432188 1.8620001
-0.49530703 0.10404175 1.8570001
-0.48519552 0.10292122 1.8370001
-0.48146459 0.10314532 1.8410001
-0.46994513 0.10168862 1.8150001
-0.46112421 0.1007922 1.7990001
-0.45796829 0.10112835 1.8050001
-0.45076326 0.10056809 1.7950001
-0.44609547 0.10056809 1.7950001
-0.42986938 0.097934827 1.748
-0.4262971 0.098158933 1.7520001
-0.42077819 0.097934827 1.748
-0.41528013 0.097710721 1.7440001
-0.41050944 0.097654693 1.743
-0.40527809 0.097486615 1.7400001
-0.39937139 0.097150452 1.7340001
-0.39190188 0.096422106 1.7210001
-0.38832694 0.096646205 1.725
-0.38450873 0.09681429 1.728
-0.38133466 0.097150452 1.7340001
-0.37769476 0.097374558 1.738
-0.37403402 0.097598664 1.7420001
-0.37098885 0.097990856 1.7490001
-0.36937389 0.09877523 1.7630001
-0.36892754 0.099895768 1.7830001
-0.36633408 0.10045604 1.7930001
-0.36651257 0.10180067 1.817
-0.36357957 0.10230492 1.8260001
-0.36001024 0.10264108 1.8320001
-0.36106354 0.10432188 1.8620001
-0.35775203 0.10477009 1.8700001
-0.35326657 0.10488215 1.8720001
-0.35398182 0.10656295 1.9020001
-0.34976983 0.10678706 1.9060001
-0.34607971 0.10717925 1.9130001
-0.3418183 0.10740335 1.9170001
-0.33806321 0.10779554 1.9240001
-0.33513722 0.10846786 1.9360001
-0.3309553 0.108748 1.9410001
-0.32641155 0.10891608 1.9440001
-0.3221828 0.10919622 1.9490001
-0.31760263 0.10936429 1.9520001
-0.31284678 0.10947635 1.9540001
-0.30792299 0.10953237 1.955
-0.30314893 0.10964443 1.9570001
-0.29821214 0.10970045 1.9580001
-0.29327017 0.10975648 1.9590001
-0.28832296 0.10981251 1.96
-0.28337058 0.10986853 1.9610001
-0.27827111 0.10986853 1.9610001
-0.27317163 0.10986853 1.9610001
-0.26807213 0.10986853 1.9610001
-0.26297265 0.10986853 1.9610001
-0.25774169 0.10981251 1.96
-0.25212917 0.1095884 1.9560001
-0.24679011 0.10947635 1.9540001
-0.24158512 0.10942031 1.9530001
-0.23626426 0.10930827 1.9510001
-0.23107226 0.10925224 1.95
-0.22681269 0.10964443 1.9570001
-0.22161029 0.1095884 1.9560001
-0.21663451 0.10964443 1.9570001
-0.21154544 0.10964443 1.9570001
-0.20624535 0.10953237 1.955
-0.20105858 0.10947635 1.9540001
-0.1959773 0.10947635 1.9540001
-0.19070062 0.10936429 1.9520001
-0.18562455 0.10936429 1.9520001
-0.18045597 0.10930827 1.9510001
-0.17538249 0.10930827 1.9510001
-0.17022172 0.10925224 1.95
-0.16464268 0.10891608 1.9440001
-0.15975159 0.10902813 1.9460001
-0.1548501 0.10914019 1.9480001
-0.1500151 0.10930827 1.9510001
-0.14486732 0.10925224 1.95
-0.14022659 0.1095884 1.9560001
-0.13527828 0.10970045 1.9580001
-0.13025309 0.10975648 1.9590001
-0.1252227 0.10981251 1.96
-0.12024839 0.10992456 1.9620001
-0.11514631 0.10992456 1.9620001
-0.10987596 0.10975648 1.9590001
-0.10472818 0.10970045 1.9580001
-0.10004359 0.11014867 1.9660001
-0.094931111 0.11014867 1.9660001
-0.089864314 0.1102047 1.9670001
-0.084749229 0.1102047 1.9670001
-0.079674616 0.11026072 1.9680001
-0.074556932 0.11026072 1.9680001
-0.069439247 0.11026072 1.9680001
-0.064321563 0.11026072 1.9680001
-0.059264041 0.11037277 1.9700001
-0.054168634 0.1104288 1.9710001
-0.049068026 0.11048483 1.9720001
-0.043761682 0.11003661 1.9640001
-0.038674079 0.11009265 1.9650002
-0.033598356 0.1102047 1.9670001
-0.028570149 0.11054085 1.973
-0.023451339 0.11059688 1.9740001
-0.018318051 0.11059688 1.9740001
-0.013178081 0.11054085 1.973
-0.008071864 0.11087701 1.9790001
-0.0029122669 0.11037277 1.9700001
0.0022128657 0.11048483 1.9720001
0.0073446776 0.11054085 1.973
0.012462721 0.1104288 1.9710001
0.017552515 0.1102047 1.9670001
0.022644555 0.11009265 1.9650002
0.027726192 0.10998058 1.9630001
0.032763977 0.10975648 1.9590001
0.037993539 0.11014867 1.9660001
0.0430841 0.11009265 1.9650002
0.048169456 0.11003661 1.9640001
0.052951228 0.10936429 1.9520001
0.057967849 0.10925224 1.95
0.062974073 0.10914019 1.9480001
0.067969903 0.10902813 1.9460001
0.072955325 0.10891608 1.9440001
0.07789021 0.108748 1.9410001
0.082809493 0.10857992 1.9380001
0.087713175 0.10841183 1.9350001
0.092649199 0.10829978 1.9330001
0.09762533 0.10824376 1.932
0.10254314 0.1081317 1.9300001
0.10750628 0.10807568 1.9290001
0.11246422 0.10801965 1.9280001
0.11747789 0.10801965 1.9280001
0.12255509 0.10807568 1.9290001
0.12763749 0.1081317 1.9300001
0.13286257 0.10829978 1.9330001
0.13817458 0.10852389 1.937
0.14417279 0.10925224 1.95
0.14932021 0.10930827 1.9510001
0.15455197 0.10942031 1.9530001
0.15979411 0.10953237 1.955
0.16529968 0.10981251 1.96
0.17178756 0.11070894 1.9760001
0.17728421 0.11093304 1.9800001
0.18280165 0.11115715 1.9840001
0.18833989 0.11138126 1.988
0.19389895 0.11160536 1.9920001
0.19937886 0.11177345 1.9950001
0.20487438 0.11194153 1.9980001
0.21038552 0.11210961 2.0010002
0.21580447 0.11222166 2.003
0.21979944 0.11160536 1.9920001
0.22520541 0.11171742 1.9940001
0.23050627 0.11177345 1.9950001
0.23581231 0.11182947 1.9960001
0.24112354 0.1118855 1.9970001
0.24631666 0.1118855 1.9970001
0.25150973 0.1118855 1.9970001
0.25657427 0.11182947 1.9960001
0.26189595 0.1118855 1.9970001
0.26695529 0.11182947 1.9960001
0.27214578 0.11182947 1.9960001
0.27747527 0.1118855 1.9970001
0.28266835 0.1118855 1.9970001
0.28800559 0.11194153 1.9980001
0.29320133 0.11194153 1.9980001
0.29675418 0.11132523 1.9870001
0.30192128 0.11132523 1.9870001
0.30708835 0.11132523 1.9870001
0.31209832 0.1112692 1.9860001
0.3172628 0.1112692 1.9860001
0.32242727 0.1112692 1.9860001
0.32742685 0.11121318 1.9850001
0.33242118 0.11115715 1.9840001
0.33758047 0.11115715 1.9840001
0.34256703 0.11110112 1.983
0.34754837 0.1110451 1.9820001
0.35270247 0.1110451 1.9820001
0.357676 0.11098907 1.9810001
0.36282751 0.11098907 1.9810001
0.36779323 0.11093304 1.9800001
0.37294212 0.11093304 1.9800001
0.37790006 0.11087701 1.9790001
0.38285279 0.11082099 1.978
0.38799646 0.11082099 1.978
0.3931402 0.11082099 1.978
0.38345453 0.083087727 1.483
0.3867887 0.082975678 1.4810001
0.39143127 0.083143756 1.4840001
0.39342573 0.082751572 1.4770001
0.3956528 0.082415409 1.4710001
0.39594769 0.081687056 1.4580001
0.40083578 0.081911162 1.462
0.40297705 0.081575006 1.4560001
0.40452832 0.081126794 1.4480001
0.40744787 0.080958709 1.4450001
0.41006726 0.080734603 1.4410001
0.41036838 0.080062278 1.429
0.41321516 0.079894207 1.4260001
0.42189375 0.08084666 1.4430001
0.42476124 0.080678575 1.4400001
0.42642289 0.080286391 1.4330001
0.42564675 0.079445988 1.4180001
0.42963693 0.079502009 1.419
0.43241084 0.079333931 1.416
0.4364011 0.07938996 1.4170001
0.43884361 0.079165854 1.4130001
0.43093053 0.077092864 1.376
0.43324566 0.076868758 1.3720001
0.43522158 0.076588623 1.3670001
0.4384554 0.076532595 1.3660001
0.44071335 0.076308489 1.3620001
0.44164571 0.075860277 1.3540001
0.44450918 0.07574822 1.3520001
0.44603667 0.075412057 1.3460001
0.44953689 0.075412057 1.3460001
0.45270053 0.075356029 1.345
0.45585895 0.075300008 1.3440001
0.45935395 0.075300008 1.3440001
0.4621602 0.075187951 1.342
0.46599698 0.07524398 1.3430001
0.47018856 0.075356029 1.345
0.47368616 0.075356029 1.345
0.47718376 0.075356029 1.345
0.48068136 0.075356029 1.345
0.48453897 0.075412057 1.3460001
0.48803917 0.075412057 1.3460001
0.49190459 0.075468086 1.3470001
0.4954074 0.075468086 1.3470001
0.49891019 0.075468086 1.3470001
0.50241303 0.075468086 1.3470001
0.50629139 0.075524114 1.348
0.51017499 0.075580142 1.3490001
0.51368302 0.075580142 1.3490001
0.51757437 0.075636163 1.35
0.52147096 0.075692192 1.3510001
0.52576137 0.075804248 1.353
0.53006214 0.075916298 1.355
0.53476715 0.076084375 1.358
0.53988415 0.076308489 1.3620001
0.54502189 0.076532595 1.3660001
0.55138522 0.076924779 1.373
0.55738086 0.077260941 1.3790001
0.5634076 0.077597104 1.3850001
0.56864679 0.07782121 1.3890001
0.57390678 0.078045316 1.393
0.58208972 0.078661613 1.404
0.58657515 0.078773662 1.406
0.59149081 0.078941748 1.409
0.59768921 0.07927791 1.4150001
1.2393962 0.16141318 2.881
1.2555441 0.16253372 2.901
1.265265 0.16281384 2.9060001
1.2715079 0.16264577 2.9030001
1.2953591 0.16471876 2.9400001
1.2999021 0.16432656 2.9330001
1.3079751 0.16438261 2.9340003
1.3160532 0.16443864 2.9350002
1.3290974 0.16511095 2.947
1.329957 0.16427055 2.9320002
1.3366691 0.16415849 2.9300001
1.342912 0.16399041 2.927
1.3528305 0.16427055 2.9320002
1.3609191 0.16432656 2.9330001
1.3685461 0.16432656 2.9330001
1.3757042 0.16427055 2.9320002
1.382857 0.16421452 2.9310002
1.3900043 0.16415849 2.9300001
1.3971467 0.16410246 2.9290001
1.4033246 0.16393438 2.9260001
1.4094869 0.16376631 2.9230001
1.4233905 0.16449465 2.9360001
1.4295632 0.16432656 2.9330001
1.4347403 0.16404644 2.9280002
1.4379209 0.1635422 2.9190001
-1.1455323 0.12323445 2.102
-1.1400661 0.12323445 2.102
-1.1345999 0.12323445 2.102
-1.1291338 0.12323445 2.102
-1.1231332 0.12317583 2.1010001
-1.1171377 0.12311721 2.1000001
-1.1111474 0.12305858 2.0990002
-1.105689 0.12305858 2.0990002
-1.1038998 0.12346897 2.1060002
-1.0994663 0.12358622 2.108
-1.0955416 0.1237621 2.1110001
-1.0910847 0.12387936 2.1130002
-1.0881587 0.12417249 2.118
-1.0780506 0.12364485 2.1090002
-1.0740918 0.12382072 2.112
-1.0706236 0.12405524 2.1160002
-1.0671346 0.12428975 2.1200001
-1.0641253 0.12458288 2.125
-1.0605922 0.1248174 2.1290002
-1.0580291 0.12516914 2.135
-1.054942 0.12546229 2.1400001
-1.0513384 0.12569679 2.1440001
-1.0589327 0.12727973 2.171
-1.0537723 0.12733836 2.1720002
-1.0495718 0.12751426 2.1750002
-1.0439157 0.12751426 2.1750002
-1.0363504 0.12727973 2.171
-1.0307047 0.12727973 2.171
-1.0260036 0.12739699 2.1730001
-1.0194136 0.12727973 2.171
-1.0128342 0.12716249 2.1690001
-1.0067295 0.12710387 2.1680002
-0.99832112 0.12675209 2.1620002
-0.99132144 0.12657622 2.1590002
-0.98433739 0.12640034 2.1560001
-0.97782284 0.12628306 2.154
-0.9708674 0.12610719 2.151
-0.96392757 0.12593131 2.148
-0.95744956 0.12581407 2.1460001
-0.94965112 0.12552091 2.141
-0.94761133 0.12598994 2.1490002
-0.95035166 0.12710387 2.1680002
-0.9451496 0.12716249 2.1690001
-0.93691033 0.12681071 2.1630001
-0.93257719 0.12698661 2.1660001
-0.92822844 0.12716249 2.1690001
-0.92514026 0.12751426 2.1750002
-0.92032969 0.1276315 2.177
-0.91550881 0.12774876 2.1790001
-0.90984249 0.12774876 2.1790001
-0.90417606 0.12774876 2.1790001
-0.8980974 0.12769014 2.1780002
-0.89161408 0.12757288 2.1760001
-0.88595545 0.12757288 2.1760001
-0.87989241 0.12751426 2.1750002
-0.8742364 0.12751426 2.1750002
-0.86897969 0.12757288 2.1760001
-0.8641147 0.12769014 2.1780002
-0.858845 0.12774876 2.1790001
-0.85396165 0.127866 2.181
-0.84478968 0.12733836 2.1720002
-0.84068686 0.12757288 2.1760001
-0.83579576 0.12769014 2.1780002
-0.83089423 0.12780738 2.1800001
-0.82522523 0.12780738 2.1800001
-0.81955624 0.12780738 2.1800001
-0.8138873 0.12780738 2.1800001
-0.8082183 0.12780738 2.1800001
-0.8025493 0.12780738 2.1800001
-0.79688036 0.12780738 2.1800001
-0.79157424 0.127866 2.181
-0.79202855 0.12886268 2.1980002
-0.78845912 0.12921444 2.204
-0.78237259 0.1291558 2.2030001
-0.778054 0.12939031 2.207
-0.77721399 0.1302111 2.2210002
-0.7697016 0.12991796 2.2160001
-0.76566279 0.1302111 2.2210002
-0.76159781 0.13050424 2.2260001
-0.75716728 0.13073874 2.23
-0.75204223 0.13085599 2.2320001
-0.75994575 0.13325971 2.273
-0.75536191 0.13349423 2.2770002
-0.75075728 0.13372873 2.2810001
-0.7458052 0.13390462 2.2840002
-0.74018967 0.13396324 2.2850001
-0.73392636 0.13390462 2.2840002
-0.7273494 0.13378736 2.2820001
-0.72078294 0.13367011 2.2800002
-0.70607501 0.13202854 2.2520001
-0.69244546 0.13056286 2.227
-0.67647934 0.12862816 2.194
-0.66679943 0.127866 2.181
-0.64930582 0.12557955 2.1420002
-0.63261598 0.12341034 2.105
-0.61343729 0.12071348 2.059
-0.60069972 0.11924781 2.0340002
-0.57755399 0.11567154 1.973
-0.5669108 0.11455762 1.9540001
-0.5595293 0.11408861 1.9460001
-0.54107726 0.11133312 1.899
-0.53359807 0.11080548 1.8900001
-0.52812374 0.11068823 1.8880001
-0.51739448 0.10945705 1.8670001
-0.51281393 0.10951568 1.868
-0.50659662 0.10922255 1.863
-0.50067472 0.10898804 1.8590001
-0.4950403 0.10881215 1.8560001
-0.48493138 0.10763961 1.8360001
-0.48120305 0.10787412 1.84
-0.46709701 0.10576354 1.8040001
-0.46420008 0.10617393 1.8110001
-0.45086408 0.1041806 1.7770001
-0.44950765 0.10494276 1.7900001
-0.43342087 0.1022459 1.7440001
-0.42937753 0.10236316 1.7460001
-0.41486102 0.099959441 1.705
-0.41042724 0.099959441 1.705
-0.40551725 0.099842191 1.7030001
-0.39967555 0.099490419 1.697
-0.39596134 0.099666305 1.7
-0.39131027 0.099607684 1.6990001
-0.38757524 0.099783555 1.702
-0.38810185 0.10107336 1.7240001
-0.38539883 0.10154238 1.7320001
-0.38023511 0.1013665 1.7290001
-0.37660816 0.101601 1.733
-0.37317514 0.10189414 1.738
-0.37098885 0.10253904 1.7490001
-0.36916435 0.1033012 1.7620001
-0.36954829 0.10470825 1.7860001
-0.36755997 0.1054704 1.7990001
-0.3667143 0.10658432 1.8180001
-0.36457512 0.10734648 1.8310001
-0.36531603 0.10898804 1.8590001
-0.36164528 0.1093398 1.8650001
-0.35775203 0.10963294 1.8700001
-0.35892788 0.11150901 1.9020001
-0.35435405 0.11162626 1.904
-0.35619268 0.11379547 1.9410001
-0.34734607 0.1125643 1.9200001
-0.34306648 0.11279881 1.9240001
-0.34034741 0.11356096 1.937
-0.33738762 0.11426449 1.9490001
-0.33300138 0.114499 1.9530001
-0.32825851 0.11461625 1.955
-0.32317463 0.11461625 1.955
-0.31841618 0.11473351 1.9570001
-0.31348717 0.11479213 1.9580001
-0.30871052 0.11490939 1.96
-0.30376852 0.11496802 1.9610001
-0.29882136 0.11502665 1.9620001
-0.29386899 0.11508527 1.9630001
-0.28891137 0.1151439 1.9640001
-0.28380412 0.1151439 1.9640001
-0.27869684 0.1151439 1.9640001
-0.27331096 0.11502665 1.9620001
-0.26834553 0.11508527 1.9630001
-0.26324087 0.11508527 1.9630001
-0.2576102 0.11485076 1.9590001
-0.25238699 0.11479213 1.9580001
-0.2469164 0.11461625 1.955
-0.24170883 0.11455762 1.9540001
-0.23638536 0.11444037 1.9520001
-0.23107226 0.11432312 1.95
-0.22681269 0.11473351 1.9570001
-0.22104381 0.11438175 1.9510001
-0.21597032 0.11438175 1.9510001
-0.21165353 0.11479213 1.9580001
-0.20645635 0.11473351 1.9570001
-0.20136727 0.11473351 1.9570001
-0.19617788 0.11467488 1.9560001
-0.1909937 0.11461625 1.955
-0.18590982 0.11461625 1.955
-0.18082593 0.11461625 1.955
-0.17565218 0.11455762 1.9540001
-0.1704836 0.114499 1.9530001
-0.16540492 0.114499 1.9530001
-0.15983368 0.11414724 1.9470001
-0.15492959 0.11426449 1.9490001
-0.15009199 0.11444037 1.9520001
-0.14538737 0.11473351 1.9570001
-0.14036997 0.11479213 1.9580001
-0.13534738 0.11485076 1.9590001
-0.13038607 0.11496802 1.9610001
-0.12528659 0.11496802 1.9610001
-0.12030967 0.11508527 1.9630001
-0.11520499 0.11508527 1.9630001
-0.10998814 0.11496802 1.9610001
-0.10483515 0.11490939 1.96
-0.10014537 0.1153784 1.9680001
-0.095075972 0.11543704 1.9690001
-0.090001374 0.11549567 1.9700001
-0.084921569 0.11555429 1.9710001
-0.079836562 0.11561292 1.9720001
-0.074746355 0.11567154 1.973
-0.06961567 0.11567154 1.973
-0.064517662 0.11573017 1.9740001
-0.059414458 0.1157888 1.9750001
-0.054306049 0.11584742 1.9760001
-0.04919244 0.11590605 1.9770001
-0.043828528 0.11531978 1.9670001
-0.038733121 0.1153784 1.9680001
-0.033735003 0.1157888 1.9750001
-0.028599111 0.1157888 1.9750001
-0.023463221 0.1157888 1.9750001
-0.018327331 0.1157888 1.9750001
-0.01319144 0.1157888 1.9750001
-0.0080677848 0.11596467 1.978
-0.002922615 0.11590605 1.9770001
0.0022128657 0.11561292 1.9720001
0.0073409551 0.11561292 1.9720001
0.012450076 0.11543704 1.9690001
0.017606057 0.11567154 1.973
0.022656079 0.11526115 1.9660001
0.027740318 0.1151439 1.9640001
0.032931227 0.11543704 1.9690001
0.038032189 0.1153784 1.9680001
0.04312795 0.11531978 1.9670001
0.048193984 0.11520253 1.9650002
0.053303875 0.11520253 1.9650002
0.058027305 0.11444037 1.9520001
0.063038729 0.11432312 1.95
0.06803976 0.11420586 1.9480001
0.073030375 0.11408861 1.9460001
0.077970468 0.11391272 1.9430001
0.082894951 0.11373685 1.9400001
0.08784917 0.11361959 1.9380001
0.092792988 0.11350234 1.9360001
0.097776927 0.11344371 1.9350001
0.10275567 0.11338508 1.9340001
0.1077292 0.11332645 1.9330001
0.11269754 0.11326782 1.932
0.11772162 0.11326782 1.932
0.12280922 0.11332645 1.9330001
0.12790202 0.11338508 1.9340001
0.13306877 0.11350234 1.9360001
0.13831726 0.11367822 1.9390001
0.14439459 0.114499 1.9530001
0.14954983 0.11455762 1.9540001
0.15478937 0.11467488 1.9560001
0.15995759 0.11473351 1.9570001
0.16529968 0.11490939 1.96
0.1704835 0.11496802 1.9610001
0.17683652 0.1157888 1.9750001
0.1824331 0.11608194 1.9800001
0.18796094 0.11631645 1.9840001
0.19350959 0.11655095 1.988
0.19907904 0.11678546 1.9920001
0.20456676 0.11696135 1.9950001
0.21007009 0.11713723 1.9980001
0.21558902 0.11731311 2.0010002
0.22090285 0.11737173 2.0020001
0.22486658 0.11672683 1.9910001
0.23027518 0.11684409 1.9930001
0.23545788 0.11684409 1.9930001
0.24076131 0.11690272 1.9940001
0.24606997 0.11696135 1.9950001
0.25125787 0.11696135 1.9950001
0.25644574 0.11696135 1.9950001
0.26163366 0.11696135 1.9950001
0.26682156 0.11696135 1.9950001
0.27214578 0.11701997 1.9960001
0.2773363 0.11701997 1.9960001
0.28266835 0.11707859 1.9970001
0.28800559 0.11713723 1.9980001
0.29320133 0.11713723 1.9980001
0.29854634 0.11719585 1.9990001
0.30207321 0.11655095 1.988
0.3072429 0.11655095 1.988
0.31241262 0.11655095 1.988
0.31758228 0.11655095 1.988
0.32275197 0.11655095 1.988
0.32775676 0.11649232 1.9870001
0.33275628 0.11643369 1.9860001
0.33792078 0.11643369 1.9860001
0.34291255 0.11637507 1.9850001
0.34807444 0.11637507 1.9850001
0.35323632 0.11637507 1.9850001
0.35821766 0.11631645 1.9840001
0.36337698 0.11631645 1.9840001
0.36853626 0.11631645 1.9840001
0.37369552 0.11631645 1.9840001
0.37885484 0.11631645 1.9840001
0.38401413 0.11631645 1.9840001
0.38917342 0.11631645 1.9840001
0.39433274 0.11631645 1.9840001
0.38087791 0.087237328 1.488
0.3837131 0.087002821 1.4840001
0.38704985 0.086885571 1.4820001
0.3895849 0.086592436 1.4770001
0.39156115 0.086182043 1.47
0.39215621 0.085478514 1.4580001
0.39458984 0.085185379 1.4530001
0.39672324 0.084833615 1.447
0.39965582 0.084657736 1.4440001
0.40229335 0.084423222 1.4400001
0.40772983 0.084774993 1.4460001
0.40693697 0.08383695 1.4300001
0.40893254 0.083485186 1.424
0.41176632 0.083309308 1.4210001
0.4157539 0.083367936 1.4220001
0.41591206 0.082664408 1.4100001
0.41630539 0.082019508 1.399
0.42444605 0.082898915 1.414
0.42903137 0.083074801 1.4170001
0.4318001 0.082898915 1.414
0.42469802 0.080846965 1.3790001
0.42673114 0.08055383 1.3740001
0.42967784 0.080436572 1.3720001
0.43135101 0.080084808 1.3660001
0.43362969 0.079850301 1.3620001
0.4387764 0.080143437 1.3670001
0.44103691 0.079908922 1.363
0.43903628 0.078912266 1.3460001
0.44187894 0.078795008 1.3440001
0.44437978 0.07861913 1.3410001
0.44753301 0.078560501 1.34
0.45068106 0.078501873 1.3390001
0.45382383 0.078443244 1.3380001
0.45696145 0.078384615 1.337
0.46043828 0.078384615 1.337
0.46391505 0.078384615 1.337
0.46774149 0.078443244 1.3380001
0.47192526 0.078560501 1.34
0.47540984 0.078560501 1.34
0.47817969 0.078443244 1.3380001
0.4820191 0.078501873 1.3390001
0.48658881 0.078677751 1.342
0.48934826 0.078560501 1.34
0.49283287 0.078560501 1.34
0.49631745 0.078560501 1.34
0.50017506 0.07861913 1.3410001
0.50403786 0.078677751 1.342
0.50790584 0.07873638 1.3430001
0.51139826 0.07873638 1.3430001
0.51527405 0.078795008 1.3440001
0.51915503 0.078853637 1.345
0.52342987 0.078970894 1.3470001
0.52771503 0.079088151 1.3490001
0.53240442 0.07926403 1.3520001
0.53710938 0.079439908 1.355
0.54182994 0.079615787 1.358
0.5473693 0.079908922 1.363
0.55293471 0.080202058 1.368
0.56015325 0.080729708 1.3770001
0.56659985 0.081140101 1.3840001
0.57225883 0.081433237 1.3890001
0.5804314 0.082078137 1.4000001
0.58532363 0.082254022 1.4030001
0.59023142 0.082429893 1.406
0.59431005 0.082488529 1.4070001
1.2594392 0.17060526 2.9100001
1.268748 0.17083977 2.914
1.2942837 0.17324349 2.9550002
1.2927157 0.17201233 2.9340003
1.3012316 0.17212957 2.9360001
1.3088666 0.17212957 2.9360001
1.31695 0.17218819 2.937
1.3304504 0.17295036 2.95
1.3471937 0.1741229 2.97
1.3558296 0.17424016 2.9720001
1.3640168 0.17429878 2.973
1.371748 0.17429878 2.973
1.3790152 0.17424016 2.9720001
1.3862771 0.17418154 2.9710002
1.3935338 0.1741229 2.97
1.4007854 0.17406428 2.9690001
1.4070828 0.17388839 2.9660001
1.4128878 0.17365389 2.9620001
1.418672 0.17341937 2.9580002
1.4239529 0.17312624 2.9530001
1.4262993 0.17248134 2.9420002
1.4320002 0.17224683 2.9380002
1.4367003 0.17189507 2.9320002
1.4408766 0.17148468 2.9250002
-1.1449873 0.12863939 2.1010001
-1.1395239 0.12863939 2.1010001
-1.1340603 0.12863939 2.1010001
-1.1291338 0.1287006 2.102
-1.1231332 0.12863939 2.1010001
-1.1171377 0.12857816 2.1000001
-1.1111474 0.12851694 2.0990002
-1.1051623 0.1284557 2.098
-1.0997064 0.1284557 2.098
-1.0989448 0.12900674 2.1070001
-1.0945038 0.12912922 2.1090002
-1.0905683 0.12931289 2.112
-1.0876451 0.12961903 2.1170001
-1.0836735 0.1298027 2.1200001
-1.0746005 0.12937412 2.1130002
-1.0706236 0.1295578 2.1160002
-1.0671346 0.1298027 2.1200001
-1.0636246 0.13004762 2.1240001
-1.0595957 0.13023131 2.1270001
-1.0565424 0.13053745 2.1320002
-1.0524771 0.13072112 2.135
-1.0479059 0.13084358 2.1370001
-1.0394222 0.13047621 2.131
-1.0333955 0.13041499 2.1300001
-1.0297867 0.13065989 2.1340001
-1.0247172 0.13072112 2.135
-1.018688 0.13065989 2.1340001
-1.0131387 0.13065989 2.1340001
-1.0099502 0.13096604 2.1390002
-1.0048573 0.13102727 2.1400001
-0.99882537 0.13096604 2.1390002
-0.99279863 0.13090481 2.138
-0.98677713 0.13084358 2.1370001
-0.98076081 0.13078235 2.1360002
-0.97292346 0.13047621 2.131
-0.96738183 0.13047621 2.131
-0.96229172 0.13053745 2.1320002
-0.95674759 0.13053745 2.1320002
-0.95164955 0.13059868 2.1330001
-0.94743341 0.13078235 2.1360002
-0.94011509 0.13053745 2.1320002
-0.93457091 0.13053745 2.1320002
-0.93556297 0.13145585 2.1470001
-0.93431139 0.13206813 2.1570001
-0.92999387 0.13225181 2.1600001
-0.92608863 0.13249673 2.164
-0.92258811 0.13280287 2.1690001
-0.91779315 0.13292532 2.171
-0.91340804 0.133109 2.174
-0.90817231 0.13317023 2.1750002
-0.90251631 0.13317023 2.1750002
-0.89686036 0.13317023 2.1750002
-0.89079452 0.133109 2.174
-0.88514113 0.133109 2.174
-0.87908328 0.13304777 2.1730001
-0.87383437 0.133109 2.174
-0.86897969 0.13323146 2.1760001
-0.8641147 0.13335392 2.1780002
-0.858845 0.13341515 2.1790001
-0.85435325 0.13359883 2.1820002
-0.84556752 0.133109 2.174
-0.84145957 0.13335392 2.1780002
-0.83656317 0.13347638 2.1800001
-0.83127534 0.13353759 2.181
-0.82560372 0.13353759 2.181
-0.81955624 0.13347638 2.1800001
-0.81351399 0.13341515 2.1790001
-0.80784756 0.13341515 2.1790001
-0.80181307 0.13335392 2.1780002
-0.79614931 0.13335392 2.1780002
-0.7904855 0.13335392 2.1780002
-0.78374076 0.13317023 2.1750002
-0.77772695 0.133109 2.174
-0.77207351 0.133109 2.174
-0.76677281 0.13317023 2.1750002
-0.7607668 0.133109 2.174
-0.75407135 0.13292532 2.171
-0.74773639 0.13280287 2.1690001
-0.74517524 0.13335392 2.1780002
-0.74019051 0.13347638 2.1800001
-0.73519546 0.13359883 2.1820002
-0.72985554 0.13366005 2.1830001
-0.73612124 0.13586426 2.2190001
-0.73100919 0.13598672 2.2210002
-0.72621316 0.1361704 2.2240002
-0.72107756 0.13629285 2.2260001
-0.715289 0.13629285 2.2260001
-0.70950037 0.13629285 2.2260001
-0.70339561 0.13623162 2.2250001
-0.68694961 0.13414988 2.1910002
-0.68094099 0.13408865 2.1900001
-0.66414613 0.13188444 2.154
-0.65854472 0.13188444 2.154
-0.63899928 0.12906797 2.108
-0.62630492 0.12759851 2.0840001
-0.61552274 0.1264964 2.066
-0.59420246 0.12319012 2.0120001
-0.57609034 0.1204961 1.9680001
-0.5657503 0.119394 1.95
-0.54659057 0.11639385 1.9010001
-0.54164714 0.11639385 1.9010001
-0.53613895 0.11627138 1.899
-0.51945221 0.11369983 1.8570001
-0.51434606 0.11363859 1.8560001
-0.50842154 0.11339369 1.8520001
-0.50115812 0.11284263 1.8430001
-0.49528825 0.11259773 1.8390001
-0.49050599 0.11259773 1.8390001
-0.48440313 0.11229159 1.8340001
-0.47937241 0.11223036 1.8330001
-0.46657914 0.1103323 1.802
-0.45343453 0.10831179 1.7690001
-0.45035666 0.10867915 1.7750001
-0.43720269 0.10659742 1.7410001
-0.43292385 0.10665864 1.7420001
-0.4288857 0.1067811 1.7440001
-0.41437438 0.10427076 1.7030001
-0.41066796 0.10445444 1.7060001
-0.4052791 0.10420953 1.702
-0.39944005 0.10384217 1.6960001
-0.39479676 0.10378094 1.6950001
-0.39084962 0.10390339 1.697
-0.38415948 0.10329112 1.687
-0.38022277 0.10341357 1.6890001
-0.37627563 0.10353603 1.6910001
-0.37297785 0.10384217 1.6960001
-0.37508696 0.105679 1.7260001
-0.3723163 0.10616882 1.7340001
-0.37120098 0.10714847 1.7500001
-0.36895484 0.10782196 1.761
-0.3699621 0.10947511 1.7880001
-0.36796859 0.11027108 1.8010001
-0.36691603 0.11137318 1.8190001
-0.36537156 0.11235281 1.835
-0.36570907 0.11394474 1.8610001
-0.36261484 0.11449579 1.8700001
-0.35794333 0.11455701 1.8710001
-0.35930529 0.11657753 1.904
-0.35435405 0.11657753 1.904
-0.35692671 0.11908786 1.9450001
-0.3533161 0.11957768 1.9530001
-0.34823743 0.11957768 1.9530001
-0.34403729 0.11988382 1.9580001
-0.3389456 0.11988382 1.9580001
-0.33402443 0.11994505 1.9590001
-0.32943389 0.12012874 1.9620001
-0.3244971 0.12018996 1.9630001
-0.31939238 0.12018996 1.9630001
-0.31444782 0.12025119 1.9640001
-0.30934054 0.12025119 1.9640001
-0.30438817 0.12031242 1.9650002
-0.29943058 0.12037364 1.9660001
-0.2946175 0.1204961 1.9680001
-0.28949979 0.1204961 1.9680001
-0.2843821 0.1204961 1.9680001
-0.27926442 0.1204961 1.9680001
-0.27386814 0.12037364 1.9660001
-0.26875564 0.12037364 1.9660001
-0.26310676 0.12012874 1.9620001
-0.25774169 0.12000628 1.96
-0.25251588 0.11994505 1.9590001
-0.24704272 0.11976137 1.9560001
-0.24183251 0.11970013 1.955
-0.23711194 0.11988382 1.9580001
-0.23178326 0.11976137 1.9560001
-0.22646499 0.11963891 1.9540001
-0.2212704 0.11957768 1.9530001
-0.21608102 0.11951646 1.9520001
-0.21176162 0.11994505 1.9590001
-0.20656183 0.11988382 1.9580001
-0.20147017 0.11988382 1.9580001
-0.19637847 0.11988382 1.9580001
-0.1911891 0.1198226 1.9570001
-0.18610002 0.1198226 1.9570001
-0.18101093 0.1198226 1.9570001
-0.17592186 0.1198226 1.9570001
-0.17074548 0.11976137 1.9560001
-0.1655743 0.11970013 1.955
-0.16057251 0.11976137 1.9560001
-0.15500908 0.119394 1.95
-0.15016888 0.11957768 1.9530001
-0.14546165 0.11988382 1.9580001
-0.14044166 0.11994505 1.9590001
-0.13548556 0.12006751 1.9610001
-0.13045256 0.12012874 1.9620001
-0.12541437 0.12018996 1.9630001
-0.12037097 0.12025119 1.9640001
-0.11532237 0.12031242 1.9650002
-0.11010031 0.12018996 1.9630001
-0.10499562 0.12018996 1.9630001
-0.099941827 0.12025119 1.9640001
-0.095220834 0.12074101 1.9720001
-0.090184115 0.12086347 1.9740001
-0.085093915 0.1209247 1.9750001
-0.080038987 0.12104715 1.9770001
-0.074935779 0.12110838 1.978
-0.069862656 0.12123083 1.9800001
-0.064746447 0.12129206 1.9810001
-0.059745371 0.1215982 1.9860001
-0.05460836 0.12165943 1.9870001
-0.049466144 0.12172065 1.988
-0.044296447 0.12172065 1.988
-0.039166115 0.12184311 1.9900001
-0.033888731 0.12147574 1.9840001
-0.0288308 0.12190434 1.9910001
-0.023558261 0.12141451 1.983
-0.018475804 0.12190434 1.9910001
-0.013251553 0.12147574 1.9840001
-0.0080759432 0.12123083 1.9800001
-0.0029255718 0.1211696 1.9790001
0.0022274535 0.12153697 1.9850001
0.0073409551 0.12074101 1.9720001
0.012488014 0.1209247 1.9750001
0.017623905 0.1209247 1.9750001
0.022782844 0.12104715 1.9770001
0.027895687 0.1209247 1.9750001
0.032981399 0.12074101 1.9720001
0.038070843 0.12061856 1.9700001
0.043171801 0.12055733 1.9690001
0.048243038 0.12043487 1.9670001
0.053330999 0.12037364 1.9660001
0.05808676 0.11963891 1.9540001
0.063103385 0.11951646 1.9520001
0.068109609 0.119394 1.95
0.073105432 0.11927155 1.9480001
0.078050725 0.11908786 1.9450001
0.082980417 0.11890418 1.9420002
0.087985158 0.11884295 1.9410001
0.092936777 0.1187205 1.9390001
0.097928517 0.11865927 1.9380001
0.10296819 0.11865927 1.9380001
0.10795213 0.11859804 1.937
0.11293087 0.11853682 1.9360001
0.11796536 0.11853682 1.9360001
0.12306336 0.11859804 1.937
0.12816656 0.11865927 1.9380001
0.1333437 0.11878172 1.9400001
0.13853125 0.11890418 1.9420002
0.14461641 0.11976137 1.9560001
0.14977942 0.1198226 1.9570001
0.15494765 0.11988382 1.9580001
0.16012107 0.11994505 1.9590001
0.16538402 0.12006751 1.9610001
0.17057043 0.12012874 1.9620001
0.17576206 0.12018996 1.9630001
0.18206455 0.12098592 1.9760001
0.18672934 0.12067978 1.9710001
0.19214685 0.12086347 1.9740001
0.19877923 0.12178188 1.9890001
0.20425914 0.12196556 1.9920001
0.20975468 0.12214925 1.9950001
0.21526578 0.12233294 1.9980001
0.22057183 0.12239416 1.9990001
0.2246407 0.12178188 1.9890001
0.22992855 0.12184311 1.9900001
0.23522159 0.12190434 1.9910001
0.24051982 0.12196556 1.9920001
0.24569993 0.12196556 1.9920001
0.25100598 0.12202679 1.9930001
0.25618866 0.12202679 1.9930001
0.26137137 0.12202679 1.9930001
0.26668781 0.12208802 1.9940001
0.27187309 0.12208802 1.9940001
0.27719736 0.12214925 1.9950001
0.28252679 0.12221047 1.9960001
0.28786144 0.1222717 1.9970001
0.29305455 0.1222717 1.9970001
0.298397 0.12233294 1.9980001
0.30374464 0.12239416 1.9990001
0.3072429 0.12172065 1.988
0.31241262 0.12172065 1.988
0.31758228 0.12172065 1.988
0.32291433 0.12178188 1.9890001
0.32792169 0.12172065 1.988
0.33292386 0.12165943 1.9870001
0.33826107 0.12172065 1.988
0.34325805 0.12165943 1.9870001
0.34842515 0.12165943 1.9870001
0.35359222 0.12165943 1.9870001
0.35875931 0.12165943 1.9870001
0.36392644 0.12165943 1.9870001
0.36927927 0.12172065 1.988
0.37444896 0.12172065 1.988
0.38152823 0.12233294 1.9980001
0.3849819 0.12178188 1.9890001
0.39015421 0.12178188 1.9890001
0.39532652 0.12178188 1.9890001
0.37802461 0.089514881 1.462
0.38104302 0.08933121 1.4590001
0.38457331 0.089269973 1.4580001
0.3870329 0.088963836 1.4530001
0.38946652 0.0886577 1.4480001
0.39187416 0.088351563 1.4430001
0.39452988 0.088106647 1.439
0.3977184 0.087984197 1.437
0.40005839 0.087678052 1.432
0.40265438 0.087433144 1.4280001
0.40466037 0.087065779 1.4220001
0.40720952 0.086820871 1.4180001
0.41002765 0.086637184 1.4150001
0.4104912 0.085963681 1.404
0.41414222 0.085963681 1.404
0.41600785 0.085596316 1.3980001
0.42114416 0.08590246 1.4030001
0.41782874 0.084494218 1.3800001
0.42019588 0.084249303 1.376
0.42285016 0.084065624 1.373
0.42548886 0.083881944 1.3700001
0.42779878 0.083637029 1.3660001
0.42914057 0.083208434 1.3590001
0.43140101 0.082963519 1.355
0.43235686 0.08247371 1.3470001
0.43488896 0.082290024 1.3440001
0.43740538 0.082106337 1.3410001
0.43990627 0.08192265 1.3380001
0.44239148 0.081738971 1.335
0.44552916 0.081677742 1.3340001
0.44866157 0.081616513 1.3330001
0.45178875 0.081555285 1.332
0.45491081 0.081494063 1.3310001
0.45837203 0.081494063 1.3310001
0.46183321 0.081494063 1.3310001
0.46529442 0.081494063 1.3310001
0.46875563 0.081494063 1.3310001
0.47221678 0.081494063 1.3310001
0.47603536 0.081555285 1.332
0.47949919 0.081555285 1.332
0.48296297 0.081555285 1.332
0.48679197 0.081616513 1.3330001
0.49062619 0.081677742 1.3340001
0.49409518 0.081677742 1.3340001
0.49793714 0.081738971 1.335
0.50140876 0.081738971 1.335
0.50525856 0.0818002 1.3360001
0.50911349 0.081861421 1.337
0.51297373 0.08192265 1.3380001
0.51683915 0.081983887 1.3390001
0.52109832 0.082106337 1.3410001
0.52536786 0.082228795 1.3430001
0.52964783 0.082351245 1.345
0.53433466 0.082534932 1.348
0.53903699 0.082718611 1.3510001
0.54415661 0.082963519 1.355
0.55091375 0.083453342 1.363
0.5577125 0.083943166 1.3710001
0.56373411 0.084310539 1.3770001
0.57019889 0.084739126 1.3840001
0.57835841 0.085412636 1.3950001
0.58365482 0.085657544 1.399
0.58855224 0.085841224 1.4020001
0.59304285 0.085963681 1.404
0.59711891 0.08602491 1.4050001
1.2909534 0.18154012 2.9650002
1.2964737 0.18123397 2.96
1.3081365 0.18178502 2.9690001
1.3185164 0.18215239 2.9750001
1.3275902 0.18233608 2.9780002
1.3357828 0.18239729 2.9790001
1.3435295 0.18239729 2.9790001
1.3494618 0.18215239 2.9750001
1.3576543 0.1822136 2.9760001
1.3653933 0.1822136 2.9760001
1.3731322 0.1822136 2.9760001
1.3804072 0.18215239 2.9750001
1.387677 0.18209116 2.9740002
1.3949414 0.18202993 2.973
1.401729 0.18190747 2.9710002
1.4080317 0.18172379 2.9680002
1.4138418 0.18147889 2.9640002
1.4196311 0.18123397 2.96
1.4253997 0.18098906 2.9560001
1.4287233 0.18043801 2.947
1.4339498 0.18013187 2.9420002
1.4386603 0.17976451 2.9360001
1.4433396 0.17939714 2.9300001
-1.1449873 0.13410293 2.1010001
-1.1389815 0.1340391 2.1000001
-1.1335205 0.1340391 2.1000001
-1.1291338 0.13416675 2.102
-1.1231332 0.13410293 2.1010001
-1.1171377 0.1340391 2.1000001
-1.1106179 0.13391145 2.098
-1.1051623 0.13391145 2.098
-1.0997064 0.13391145 2.098
-1.0952939 0.1340391 2.1000001
-1.0908709 0.13416675 2.102
-1.0864373 0.13429442 2.1040001
-1.0866175 0.13499652 2.115
-1.0836735 0.13531567 2.1200001
-1.0801946 0.13557097 2.1240001
-1.0706236 0.13506036 2.1160002
-1.0666312 0.13525183 2.1190002
-1.0631238 0.13550715 2.1230001
-1.0585994 0.13563479 2.125
-1.0545601 0.13582629 2.128
-1.0500124 0.13595395 2.1300001
-1.0449637 0.13601777 2.131
-1.0374711 0.13576247 2.1270001
-1.0314548 0.13569863 2.1260002
-1.0288217 0.13608161 2.1320002
-1.0237575 0.13614543 2.1330001
-1.0177333 0.13608161 2.1320002
-1.0117143 0.13601777 2.131
-0.99814612 0.1349327 2.1140001
-0.99170959 0.13480504 2.112
-0.98528355 0.13467738 2.1100001
-0.97979665 0.13467738 2.1100001
-0.97430968 0.13467738 2.1100001
-0.96974093 0.13480504 2.112
-0.97155374 0.13582629 2.128
-0.966474 0.13589013 2.1290002
-0.96229172 0.13608161 2.1320002
-0.95629877 0.13601777 2.131
-0.95120341 0.13608161 2.1320002
-0.94654626 0.13620925 2.1340001
-0.93923312 0.13595395 2.1300001
-0.93807769 0.13659222 2.1400001
-0.93469155 0.13691138 2.1450002
-0.93214566 0.13735817 2.1520002
-0.92784113 0.13754965 2.1550002
-0.92394894 0.13780497 2.1590002
-0.92003596 0.13806027 2.1630001
-0.91567945 0.13825177 2.1660001
-0.91130733 0.13844325 2.1690001
-0.90608448 0.13850707 2.1700001
-0.90085644 0.13857089 2.171
-0.89521086 0.13857089 2.171
-0.88956529 0.13857089 2.171
-0.88391966 0.13857089 2.171
-0.87827414 0.13857089 2.171
-0.87303054 0.13863473 2.1720002
-0.8685804 0.13882622 2.1750002
-0.8641147 0.1390177 2.1780002
-0.85923916 0.13914534 2.1800001
-0.85122085 0.13876238 2.174
-0.84712338 0.1390177 2.1780002
-0.84261853 0.13920918 2.181
-0.8373307 0.13927302 2.1820002
-0.83165658 0.13927302 2.1820002
-0.82598233 0.13927302 2.1820002
-0.81993216 0.13920918 2.181
-0.81351399 0.13908152 2.1790001
-0.80784756 0.13908152 2.1790001
-0.80144483 0.13895386 2.177
-0.7957837 0.13895386 2.177
-0.79012251 0.13895386 2.177
-0.78338033 0.13876238 2.174
-0.77772695 0.13876238 2.174
-0.77207351 0.13876238 2.174
-0.75972199 0.13754965 2.1550002
-0.75236827 0.13723052 2.1500001
-0.74434596 0.13678372 2.1430001
-0.73808372 0.13665605 2.141
-0.73593748 0.13729434 2.151
-0.72932529 0.13710284 2.148
-0.72373956 0.13710284 2.148
-0.71781945 0.13703902 2.1470001
-0.71256799 0.13710284 2.148
-0.71126097 0.13793261 2.161
-0.70727414 0.13825177 2.1660001
-0.70293725 0.13850707 2.1700001
-0.69793701 0.13863473 2.1720002
-0.69228882 0.13863473 2.1720002
-0.68632442 0.13857089 2.171
-0.68005186 0.13844325 2.1690001
-0.66228509 0.13595395 2.1300001
-0.66167951 0.1369752 2.1460001
-0.64142376 0.13391145 2.098
-0.63566488 0.13384762 2.0970001
-0.61999381 0.13167746 2.0630002
-0.60360557 0.12931581 2.026
-0.59213519 0.12797543 2.0050001
-0.57638305 0.12567762 1.9690001
-0.55559582 0.12223089 1.9150001
-0.5491783 0.12191176 1.9100001
-0.53081989 0.11891183 1.863
-0.52597523 0.11891183 1.863
-0.51973194 0.11859269 1.858
-0.50575513 0.11648636 1.825
-0.50128382 0.11655019 1.8260001
-0.49571961 0.1163587 1.8230001
-0.49070972 0.11629488 1.8220001
-0.48517153 0.1161034 1.8190001
-0.4817619 0.11642253 1.8240001
-0.47100368 0.11495449 1.8010001
-0.46865052 0.11552894 1.8100001
-0.45266554 0.1127205 1.766
-0.45010293 0.11323112 1.774
-0.43695158 0.11106097 1.7400001
-0.43242681 0.11106097 1.7400001
-0.41560596 0.10786956 1.6900001
-0.40975133 0.1074866 1.6840001
-0.40464997 0.10729511 1.6810001
-0.39980239 0.10716746 1.6790001
-0.39849797 0.10799722 1.692
-0.39409798 0.10799722 1.692
-0.39015868 0.10812487 1.6940001
-0.38370407 0.10755042 1.6850001
-0.37954742 0.10761425 1.6860001
-0.37516305 0.10761425 1.6860001
-0.37275794 0.1081887 1.6950001
-0.37595624 0.11042269 1.7300001
-0.37188688 0.11055034 1.7320001
-0.37077671 0.11157159 1.748
-0.36874533 0.11233754 1.7600001
-0.37058285 0.11431621 1.7910001
-0.36878583 0.1152098 1.8050001
-0.36752117 0.11629488 1.8220001
-0.36596891 0.11731613 1.8380001
-0.36649513 0.11903949 1.8650001
-0.36261484 0.11935863 1.8700001
-0.36616969 0.12216707 1.914
-0.35987145 0.12172027 1.9070001
-0.36198458 0.12414574 1.9450001
-0.35747725 0.12433722 1.9480001
-0.35385883 0.12484785 1.9560001
-0.34930727 0.12503934 1.9590001
-0.34509155 0.12535848 1.9640001
-0.33981112 0.12529464 1.9630001
-0.33555898 0.12561378 1.9680001
-0.3304413 0.12561378 1.9680001
-0.32548895 0.12567762 1.9690001
-0.32036865 0.12567762 1.9690001
-0.31524834 0.12567762 1.9690001
-0.31012806 0.12567762 1.9690001
-0.30516267 0.12574145 1.9700001
-0.30019209 0.12580527 1.9710001
-0.29521632 0.1258691 1.9720001
-0.29008821 0.1258691 1.9720001
-0.28496012 0.1258691 1.9720001
-0.27983207 0.1258691 1.9720001
-0.27456465 0.12580527 1.9710001
-0.26889235 0.12554996 1.9670001
-0.26364318 0.12548614 1.9660001
-0.2580047 0.12523082 1.9620001
-0.25264478 0.12510316 1.96
-0.24780051 0.12523082 1.9620001
-0.24257472 0.12516698 1.9610001
-0.23723304 0.12503934 1.9590001
-0.23202026 0.1249755 1.9580001
-0.22669679 0.12484785 1.9560001
-0.221497 0.12478402 1.955
-0.21630242 0.12472019 1.9540001
-0.21111305 0.12465636 1.9530001
-0.20666733 0.12503934 1.9590001
-0.20157306 0.12503934 1.9590001
-0.19647878 0.12503934 1.9590001
-0.19138449 0.12503934 1.9590001
-0.18629022 0.12503934 1.9590001
-0.18119593 0.12503934 1.9590001
-0.17502293 0.1242734 1.9470001
-0.16995984 0.1242734 1.9470001
-0.16582838 0.1249755 1.9580001
-0.16073669 0.1249755 1.9580001
-0.15516807 0.12459254 1.9520001
-0.15032266 0.12478402 1.955
-0.14553595 0.12503934 1.9590001
-0.14058504 0.12516698 1.9610001
-0.13562374 0.12529464 1.9630001
-0.13051905 0.12529464 1.9630001
-0.12547825 0.12535848 1.9640001
-0.12049355 0.12548614 1.9660001
-0.11543975 0.12554996 1.9670001
-0.11026857 0.12548614 1.9660001
-0.10515608 0.12548614 1.9660001
-0.10009448 0.12554996 1.9670001
-0.095365696 0.12606059 1.9750001
-0.090321176 0.12618825 1.9770001
-0.085266255 0.12631589 1.9790001
-0.080241412 0.12650739 1.9820001
-0.075163089 0.12663503 1.9840001
-0.070039079 0.12669887 1.9850001
-0.064942554 0.12682652 1.9870001
-0.059865706 0.127018 1.9900001
-0.05471829 0.12708183 1.9910001
-0.049590558 0.1272095 1.9930001
-0.044363294 0.12708183 1.9910001
-0.039205477 0.12714566 1.9920001
-0.034042463 0.1272095 1.9930001
-0.028758397 0.12676269 1.9860001
-0.023677062 0.1272095 1.9930001
-0.018503645 0.12727332 1.9940001
-0.013311666 0.1272095 1.9930001
-0.0081126513 0.12695418 1.9890001
-0.0029373982 0.12682652 1.9870001
0.0022308198 0.12689035 1.988
0.007378181 0.12650739 1.9820001
0.012513306 0.12631589 1.9790001
0.017713139 0.12669887 1.9850001
0.022840463 0.12650739 1.9820001
0.027952183 0.12631589 1.9790001
0.033048298 0.12612441 1.9760001
0.038148142 0.12599675 1.9740001
0.043237582 0.1258691 1.9720001
0.048316617 0.12574145 1.9700001
0.05338525 0.12561378 1.9680001
0.058146212 0.12484785 1.9560001
0.063168041 0.12472019 1.9540001
0.068179473 0.12459254 1.9520001
0.073180489 0.12446488 1.95
0.078171112 0.12433722 1.9480001
0.083108597 0.12414574 1.9450001
0.088121146 0.12408191 1.9440001
0.093128495 0.12401808 1.9430001
0.098130643 0.12395426 1.9420002
0.10318072 0.12395426 1.9420002
0.10817506 0.12389043 1.9410001
0.11322253 0.12389043 1.9410001
0.11827002 0.12389043 1.9410001
0.12331749 0.12389043 1.9410001
0.1284311 0.12395426 1.9420002
0.13361864 0.12408191 1.9440001
0.13874525 0.12414574 1.9450001
0.14402492 0.12433722 1.9480001
0.15000904 0.12510316 1.96
0.15518506 0.12516698 1.9610001
0.16028453 0.12516698 1.9610001
0.16546836 0.12523082 1.9620001
0.17065737 0.12529464 1.9630001
0.1758516 0.12535848 1.9640001
0.18077461 0.12523082 1.9620001
0.1866346 0.12574145 1.9700001
0.1920495 0.12593292 1.973
0.19748001 0.12612441 1.9760001
0.20282358 0.12625207 1.978
0.20828271 0.12644355 1.9810001
0.21375741 0.12663503 1.9840001
0.21902706 0.12669887 1.9850001
0.22441483 0.12682652 1.9870001
