# .PCD v0.7 - Point Cloud Data file format
VERSION 0.7
FIELDS x y z
SIZE 4 4 4
TYPE F F F
COUNT 1 1 1
WIDTH 1525
HEIGHT 1
VIEWPOINT 0 0 0 1 0 0 0
POINTS 1525
DATA ascii
0.57923406 0.57334685 2.1910002
0.59080625 0.57910383 2.2130001
0.59359705 0.57622534 2.2020001
0.60939485 0.58590758 2.2390001
0.61576819 0.58643097 2.2410002
0.62215185 0.5869543 2.243
0.64086485 0.59899169 2.289
0.64625353 0.59846836 2.2870002
0.66275364 0.6081506 2.3240001
0.66994953 0.60919732 2.3280001
0.67745674 0.61050576 2.3330002
0.68323189 0.61024404 2.332
0.69047987 0.61129081 2.3360002
0.69774866 0.61233753 2.3400002
0.70473742 0.61312258 2.3430002
0.71113503 0.61338425 2.3440001
0.71723187 0.61338425 2.3440001
0.72332871 0.61338425 2.3440001
0.72911435 0.61312258 2.3430002
0.73426723 0.61233753 2.3400002
0.73908812 0.61129081 2.3360002
0.74356908 0.60998237 2.3310001
0.74802423 0.60867399 2.3260002
0.7547226 0.60919732 2.3280001
0.76012421 0.60867399 2.3260002
0.75266904 0.59794497 2.2850001
0.7572844 0.59689826 2.2810001
0.76254815 0.59637487 2.279
0.76746428 0.59558982 2.276
0.77270472 0.59506649 2.2740002
0.77827698 0.59480476 2.273
0.78384417 0.5945431 2.2720001
0.78349692 0.58983284 2.2540002
0.79041028 0.5906179 2.2570002
0.80333692 0.59585154 2.2770002
0.8096149 0.5961132 2.2780001
0.81804603 0.59794497 2.2850001
0.82615304 0.59951508 2.2910001
0.83429134 0.60108519 2.2970002
0.84246081 0.60265529 2.3030002
0.85029298 0.60396367 2.3080001
0.85740924 0.60474873 2.3110001
0.87836474 0.61521602 2.3510001
0.88297492 0.6141693 2.3470001
0.88870084 0.61390764 2.3460002
0.90853381 0.62332821 2.3820002
0.91434538 0.62306648 2.381
0.9213118 0.62358987 2.3830001
0.95086318 0.63929081 2.4430001
0.95839298 0.64007586 2.4460001
0.96554404 0.64059925 2.4480002
0.97349942 0.64164597 2.4520001
0.98067641 0.64216936 2.4540002
0.98545045 0.64112258 2.45
0.99182296 0.64112258 2.45
0.99778807 0.64086092 2.4490001
1.0033379 0.64033753 2.447
1.0113533 0.6413843 2.4510002
1.0144064 0.63929081 2.4430001
1.0044653 0.62908518 2.404
1.0111388 0.62934691 2.4050002
0.99243534 0.61390764 2.3460002
0.99811167 0.61364591 2.345
1.0110629 0.61783284 2.3610001
1.0098797 0.61338425 2.3440001
1.0125091 0.61129081 2.3360002
1.0041959 0.60265529 2.3030002
1.0075543 0.60108519 2.2970002
1.0099988 0.59899169 2.289
1.0119581 0.59663659 2.2800002
1.0169955 0.5961132 2.2780001
1.0251659 0.59742159 2.283
1.0302008 0.59689826 2.2810001
1.036588 0.59715992 2.2820001
1.0461783 0.59925342 2.2900002
1.0604048 0.60396367 2.3080001
1.0687183 0.60527211 2.3130002
1.0756637 0.60579544 2.3150001
1.0830868 0.6065805 2.3180001
1.0900558 0.60710388 2.3200002
1.0965626 0.60736555 2.3210001
1.1025996 0.60736555 2.3210001
1.1076813 0.60684216 2.319
1.1122724 0.60605717 2.3160002
1.1163648 0.60501039 2.312
1.1199514 0.60370201 2.3070002
1.1176549 0.59925342 2.2900002
1.1221392 0.59846836 2.2870002
1.1310475 0.60003847 2.2930002
1.1345322 0.59873003 2.2880001
1.1330065 0.59480476 2.273
1.1374155 0.59401977 2.2700002
1.1423125 0.59349638 2.2680001
1.147199 0.59297299 2.266
1.1581817 0.59558982 2.276
1.1610329 0.59401977 2.2700002
-1.7722057 0.88984329 3.3670001
-1.7833502 0.89988613 3.4050002
-1.7744937 0.89988613 3.4050002
-1.7661557 0.90015036 3.4060001
-1.7572966 0.90015036 3.4060001
-1.7669178 0.90966457 3.4420002
-1.7584758 0.90992886 3.4430001
-1.7505366 0.91045743 3.4450002
-1.741576 0.91045743 3.4450002
-1.7326155 0.91045743 3.4450002
-1.7436683 0.92102879 3.4850001
-1.7341059 0.92076451 3.4840002
-1.7245488 0.92050028 3.4830003
-1.7145044 0.91997164 3.4810002
-1.7039803 0.91917878 3.4780002
-1.6924971 0.91785735 3.473
-1.6776471 0.91468602 3.4610002
-1.6696092 0.91521454 3.4630001
-1.6452569 0.90675747 3.4310002
-1.6339481 0.90543604 3.4260001
-1.6079613 0.89592183 3.3900001
-1.5821617 0.88640761 3.3540001
-1.573907 0.88667196 3.3550003
-1.5409214 0.87292916 3.3030002
-1.5318661 0.87266487 3.302
-1.5228162 0.87240058 3.3010001
-1.5142303 0.87240058 3.3010001
-1.5024513 0.87055057 3.2940001
-1.4943371 0.87081486 3.2950001
-1.5096651 0.88482189 3.348
-1.4991636 0.8837648 3.3440001
-1.4909116 0.88402909 3.3450003
-1.4888577 0.88799334 3.3600001
-1.4893689 0.89354324 3.381
-1.4827644 0.89486468 3.3860002
-1.474828 0.89539331 3.3880002
-1.4668809 0.89592183 3.3900001
-1.4580635 0.89592183 3.3900001
-1.4488186 0.89565754 3.3890002
-1.4412782 0.8964504 3.3920002
-1.4130296 0.88429338 3.3460002
-1.4060054 0.88535047 3.3500001
-1.3806078 0.87477916 3.3100002
-1.3736563 0.87583625 3.3140001
-1.3518556 0.86737919 3.2820001
-1.3285843 0.85786498 3.2460001
-1.3185146 0.85680783 3.2420001
-1.3088697 0.85601497 3.2390001
-1.2992405 0.85522211 3.2360001
-1.2944136 0.85760069 3.2450001
-1.2855769 0.8573364 3.2440002
-1.2767456 0.85707217 3.2430003
-1.2683103 0.85707217 3.2430003
-1.2594867 0.85680783 3.2420001
-1.2468094 0.85390073 3.2310002
-1.2376387 0.85337216 3.2290001
-1.2284787 0.85284364 3.2270002
-1.2200851 0.85284364 3.2270002
-1.2285883 0.86473632 3.2720001
-1.2182134 0.86341494 3.2670002
-1.2108266 0.8642078 3.2700002
-1.2118809 0.87107921 3.2960002
-1.2000222 0.86870062 3.2870002
-1.1918352 0.86896491 3.2880001
-1.1965983 0.87874335 3.325
-1.1883073 0.8790077 3.3260002
-1.1800109 0.87927198 3.3270001
-1.1731178 0.88059342 3.3320003
-1.1654994 0.88138628 3.3350003
-1.1644561 0.88720047 3.3570001
-1.1553802 0.88693619 3.3560002
-1.1463095 0.88667196 3.3550003
-1.1372439 0.88640761 3.3540001
-1.1295295 0.88720047 3.3570001
-1.122467 0.88852191 3.3620002
-1.0991466 0.8768934 3.3180001
-1.0908451 0.87715775 3.3190002
-1.0688435 0.86632204 3.2780001
-1.0486726 0.85680783 3.2420001
-1.0399191 0.8565436 3.2410002
-1.02035 0.84729362 3.2060001
-1.0126424 0.84782219 3.2080002
-1.0055505 0.84887934 3.2120001
-0.99874824 0.85020077 3.2170002
-0.99438292 0.85363644 3.2300003
-1.0012444 0.86685067 3.2800002
-0.99362099 0.86764348 3.2830002
-0.98388153 0.86658633 3.279
-0.98754841 0.87742198 3.3200002
-0.99247617 0.88957906 3.3660002
-0.98401332 0.88984329 3.3670001
-0.98481417 0.89856464 3.4000001
-0.97654468 0.89909327 3.4020002
-0.96798044 0.8993575 3.4030001
-0.9701212 0.90966457 3.4420002
-0.96144772 0.90992886 3.4430001
-0.95332223 0.91072172 3.4460001
-0.94490719 0.91125029 3.4480002
-0.93702459 0.91230744 3.4520001
-0.92965883 0.91389316 3.4580002
-0.92172945 0.91495025 3.4620001
-0.9137792 0.9160074 3.4660001
-0.90398079 0.91521454 3.4630001
-0.90272665 0.92314309 3.4930003
-0.89440876 0.92393589 3.4960001
-0.88759458 0.92631447 3.5050001
-0.87897927 0.92684305 3.5070002
-0.87010545 0.92710733 3.5080001
-0.86122644 0.92737156 3.5090001
-0.85234225 0.92763591 3.5100002
-0.84297234 0.92737156 3.5090001
-0.83360773 0.92710733 3.5080001
-0.82424825 0.92684305 3.5070002
-0.81466156 0.92631447 3.5050001
-0.79796064 0.91759312 3.4720001
-0.78892982 0.91759312 3.4720001
-0.7695663 0.90543604 3.4260001
-0.76021111 0.90490752 3.4240003
-0.75086623 0.90437895 3.4220002
-0.73502719 0.89592183 3.3900001
-0.72706652 0.89697897 3.3940001
-0.70977384 0.88640761 3.3540001
-0.70084095 0.88614333 3.3530002
-0.68159235 0.87266487 3.302
-0.67300367 0.87266487 3.302
-0.66401267 0.87213629 3.3000002
-0.64867634 0.86315072 3.2660003
-0.63998532 0.86288637 3.2650001
-0.62491691 0.85390073 3.2310002
-0.61574972 0.85284364 3.2270002
-0.60697979 0.85231501 3.2250001
-0.59914821 0.85310787 3.2280002
-0.5918501 0.85469359 3.2340002
-0.5856033 0.85786498 3.2460001
-0.5766269 0.85707217 3.2430003
-0.56854212 0.85760069 3.2450001
-0.55975658 0.85707217 3.2430003
-0.55149138 0.8573364 3.2440002
-0.54372323 0.85839355 3.2480001
-0.53774714 0.86235785 3.2630002
-0.53055751 0.86447209 3.2710001
-0.52141118 0.86341494 3.2670002
-0.51322752 0.86394346 3.2690001
-0.50472474 0.86394346 3.2690001
-0.49773991 0.86658633 3.279
-0.48756996 0.86367923 3.2680001
-0.47877657 0.86315072 3.2660003
-0.46999362 0.86262208 3.2640002
-0.4598071 0.8594507 3.2520001
-0.45232007 0.86130065 3.2590001
-0.44370714 0.86103636 3.2580001
-0.4310917 0.85284364 3.2270002
-0.42230517 0.85205078 3.2240002
-0.40878397 0.84147942 3.1840003
-0.14487474 0.51905322 1.9640001
-0.13962395 0.51852471 1.9620001
-0.13486354 0.51984608 1.9670001
-0.1288898 0.51641041 1.9540001
-0.12349057 0.51508898 1.9490001
-0.11811735 0.5137676 1.9440001
-0.11294462 0.51323903 1.9420002
-0.10589332 0.50372481 1.9060001
-0.1002473 0.50028908 1.8930001
-0.093762502 0.4920963 1.8620001
-0.088728353 0.49103916 1.858
-0.08245071 0.48258209 1.8260001
-0.077488452 0.48126069 1.8210001
-0.071353659 0.47201076 1.7860001
-0.066521458 0.47068933 1.7810001
-0.060151525 0.45747513 1.7310001
-0.055616979 0.45721087 1.7300001
-0.051028546 0.45641801 1.7270001
-0.04648266 0.4558894 1.725
-0.041971527 0.45562515 1.7240001
-0.037465591 0.45536086 1.723
-0.033156294 0.45773941 1.7320001
-0.028667839 0.4580037 1.733
-0.024188127 0.45853227 1.7350001
-0.019698007 0.45906085 1.7370001
-0.015206222 0.45985371 1.7400001
-0.010692694 0.46038225 1.7420001
-0.0061899852 0.46249655 1.7500001
-0.0016503393 0.46593222 1.7630001
0.0029369541 0.46619648 1.7640001
0.0075849076 0.46989647 1.7780001
0.012168349 0.46831077 1.7720001
0.016843662 0.47016075 1.779
0.021639876 0.47386074 1.7930001
0.026332876 0.47438928 1.7950001
0.031019012 0.4746536 1.7960001
0.035710342 0.47491786 1.7970001
0.040406883 0.47518215 1.7980001
0.04510862 0.47544643 1.7990001
0.049843237 0.47597501 1.8010001
0.054588255 0.47650355 1.8030001
0.059343684 0.47703212 1.8050001
0.064109504 0.4775607 1.807
0.069038063 0.47914639 1.8130001
0.073672377 0.47861785 1.8110001
0.078469425 0.47914639 1.8130001
0.085570998 0.49288917 1.8650001
0.091973402 0.50134623 1.8970001
0.096907578 0.50134623 1.8970001
0.10441865 0.51403183 1.9450001
0.11088485 0.52063894 1.9700001
0.11659776 0.52328181 1.9800001
0.12371545 0.53173888 2.0120001
0.13035873 0.53755313 2.0340002
0.13771665 0.54574591 2.0650001
0.14371142 0.54812443 2.0740001
0.14946543 0.54944587 2.079
0.15531994 0.55103153 2.085
0.16105148 0.55208868 2.089
0.16672415 0.55288154 2.092
0.17249471 0.55393875 2.0960002
0.1774371 0.55235302 2.0900002
0.18278575 0.55208868 2.089
0.18812922 0.55182439 2.0880001
0.1933748 0.55129588 2.0860002
0.19927707 0.55261725 2.0910001
0.20432423 0.55156016 2.0870001
0.20884804 0.54918158 2.0780001
0.21476854 0.55050302 2.0830002
0.21997508 0.54997444 2.0810001
0.22517121 0.54944587 2.079
0.23046786 0.54918158 2.0780001
0.23598632 0.54944587 2.079
0.24162611 0.54997444 2.0810001
0.24739499 0.5507673 2.0840001
0.25330079 0.55182439 2.0880001
0.25922742 0.55288154 2.092
0.26504833 0.5536744 2.095
0.27269247 0.55816722 2.112
0.27976647 0.56133866 2.1240001
0.28582835 0.56239575 2.128
0.29259565 0.56477433 2.1370001
0.3001073 0.56847429 2.151
0.30655488 0.57006001 2.1570001
0.31288895 0.57138145 2.1620002
0.32322669 0.57983845 2.194
0.32938316 0.58063132 2.197
0.33570772 0.58168852 2.2010002
0.34205312 0.58274561 2.2050002
0.34826162 0.58353847 2.2080002
0.35448566 0.58433133 2.2110002
0.36056241 0.58485991 2.2130001
0.3666496 0.58538848 2.2150002
0.37274712 0.585917 2.217
0.37868437 0.58618134 2.2180002
0.38462681 0.58644557 2.2190001
0.39057443 0.58670986 2.22
0.39652729 0.5869742 2.2210002
0.24008323 0.30630484 1.159
0.24267834 0.30577627 1.1570001
0.24611242 0.30630484 1.159
0.2489121 0.30604059 1.1580001
0.2519241 0.30604059 1.1580001
0.49730974 0.57006001 2.1570001
0.50292015 0.57006001 2.1570001
0.50853062 0.57006001 2.1570001
0.51390272 0.56979573 2.1560001
0.51951051 0.56979573 2.1560001
0.52511841 0.56979573 2.1560001
0.53121853 0.57032424 2.158
0.53782666 0.57138145 2.1620002
0.54395276 0.57190996 2.164
0.55034333 0.57270283 2.1670001
0.55674952 0.57349569 2.1700001
0.56265289 0.57375997 2.171
0.56960857 0.57508141 2.1760001
0.57844096 0.57825285 2.1880002
0.58920437 0.58327419 2.207
0.60464942 0.5927884 2.243
0.60993922 0.59225988 2.2410002
0.62703389 0.60309547 2.2820001
0.63324684 0.6033597 2.283
0.63806504 0.60230261 2.279
0.65727407 0.61472398 2.3260002
0.66332406 0.61472398 2.3260002
0.67225182 0.61736679 2.3360002
0.67629516 0.61551678 2.329
0.68938452 0.62185961 2.3530002
0.69905168 0.62503099 2.365
0.70639598 0.6260882 2.3690002
0.71346021 0.62688106 2.3720002
0.72023654 0.62740958 2.3740001
0.72671741 0.6276738 2.375
0.73258632 0.62740958 2.3740001
0.73813879 0.62688106 2.3720002
0.74305332 0.62582386 2.368
0.74573225 0.62291676 2.3570001
0.74994892 0.62133104 2.3510001
0.7544561 0.62000966 2.3460002
0.75601935 0.61630964 2.332
0.76110452 0.61551678 2.329
0.76880944 0.61683822 2.3340001
0.76492035 0.60890973 2.3040001
0.77024388 0.60838115 2.302
0.7755571 0.60785258 2.3000002
0.78085989 0.607324 2.2980001
0.78683704 0.607324 2.2980001
0.79315919 0.60758829 2.299
0.79983425 0.60811687 2.3010001
0.80722004 0.60917401 2.3050001
0.81674343 0.61181682 2.3150001
0.82489735 0.61340255 2.3210001
0.83272439 0.61472398 2.3260002
0.84093797 0.61630964 2.332
0.84990937 0.61842394 2.3400002
0.85892218 0.62053818 2.348
0.86834514 0.62291676 2.3570001
0.87744391 0.62503099 2.365
0.88621068 0.62688106 2.3720002
0.89463753 0.62846667 2.378
0.90233821 0.62952387 2.3820002
0.90853381 0.62952387 2.3820002
0.93661845 0.64458799 2.4390001
0.94450885 0.64564514 2.4430001
0.94813865 0.64379519 2.4360001
0.95525843 0.64432377 2.4380002
0.9627831 0.64511663 2.4410002
0.98660117 0.65674508 2.4850001
0.993864 0.65727365 2.4870002
1.0011373 0.65780216 2.4890001
1.0043726 0.65568793 2.4810002
1.0128628 0.65700936 2.4860001
1.019329 0.65700936 2.4860001
1.0241448 0.65595222 2.4820001
1.0144064 0.64564514 2.4430001
1.0207608 0.64564514 2.4430001
1.0077753 0.63348806 2.3970001
1.0190864 0.6366595 2.4090002
1.0091782 0.62661672 2.3710001
1.0119194 0.62450248 2.3630002
1.0137573 0.62185961 2.3530002
1.0129426 0.61763108 2.3370001
1.0159689 0.61578113 2.3300002
1.0049224 0.60547405 2.2910001
1.0064689 0.60283118 2.2810001
1.0115142 0.60230261 2.279
1.017442 0.60230261 2.279
1.0233697 0.60230261 2.279
1.0292975 0.60230261 2.279
1.0356796 0.60256696 2.2800002
1.0420667 0.60283118 2.2810001
1.0457025 0.60150975 2.276
1.0687183 0.61128831 2.3130002
1.0742698 0.61102396 2.312
1.0821525 0.61208117 2.3160002
1.0891161 0.61260968 2.3180001
1.0956177 0.61287391 2.319
1.1016494 0.61287391 2.319
1.1067261 0.6123454 2.3170002
1.1113119 0.61155254 2.3140001
1.1153992 0.61049545 2.3100002
1.1189803 0.60917401 2.3050001
1.1220473 0.60758829 2.299
1.1260645 0.60653114 2.2950001
1.1295676 0.60520977 2.2900002
1.1330447 0.60388833 2.2850001
1.1374927 0.60309547 2.2820001
1.141925 0.60230261 2.279
1.1473491 0.60203832 2.2780001
1.1482116 0.59939551 2.2680001
1.1541108 0.59939551 2.2680001
1.1600099 0.59939551 2.2680001
-1.7737848 0.89940161 3.3700001
-1.7655429 0.89966851 3.3710001
-1.7739725 0.9084757 3.404
-1.7656372 0.90874261 3.4050002
-1.7567807 0.90874261 3.4050002
-1.7474108 0.9084757 3.404
-1.7390677 0.90874261 3.4050002
-1.7291946 0.90820879 3.4030001
-1.7410705 0.91915113 3.4440002
-1.7321125 0.91915113 3.4440002
-1.7216536 0.91835046 3.4410002
-1.713201 0.91861731 3.4420002
-1.7047434 0.91888422 3.4430001
-1.695788 0.91888422 3.4430001
-1.7030004 0.9276914 3.4760001
-1.6915226 0.92635697 3.4710002
-1.6781318 0.92395502 3.4620001
-1.6696092 0.92422187 3.4630001
-1.6438184 0.91488093 3.4280002
-1.6334713 0.91408032 3.4250002
-1.6079613 0.90473932 3.3900001
-1.5977285 0.90393865 3.3870001
-1.5743761 0.89566523 3.3560002
-1.5651805 0.89539838 3.3550003
-1.5453198 0.88899308 3.3310001
-1.5412691 0.89166194 3.3410001
-1.5344139 0.89272952 3.3450003
-1.5270816 0.89353013 3.348
-1.519734 0.8943308 3.3510001
-1.5101161 0.89379704 3.3490002
-1.5005085 0.89326328 3.3470001
-1.4922485 0.89353013 3.348
-1.4990493 0.90287113 3.3830001
-1.49025 0.90287113 3.3830001
-1.4836403 0.90420556 3.3880002
-1.4761339 0.90500623 3.3910003
-1.4681791 0.90553999 3.3930001
-1.4597839 0.90580684 3.3940001
-1.4505285 0.90553999 3.3930001
-1.4421281 0.90580684 3.3940001
-1.4337225 0.90607375 3.3950002
-1.406425 0.8943308 3.3510001
-1.3985432 0.89486462 3.3530002
-1.3740708 0.88472295 3.3150001
-1.3662722 0.88525671 3.3170002
-1.3441378 0.87644953 3.2840002
-1.3351892 0.87618268 3.2830002
-1.3258418 0.87564886 3.2810001
-1.3165048 0.8751151 3.279
-1.3071781 0.87458134 3.2770002
-1.2982583 0.87431449 3.2760003
-1.2897373 0.87431449 3.2760003
-1.2816074 0.87458134 3.2770002
-1.2734723 0.87484825 3.2780001
-1.265332 0.8751151 3.279
-1.2568032 0.8751151 3.279
-1.2482743 0.8751151 3.279
-1.2397456 0.8751151 3.279
-1.2293394 0.87378067 3.2740002
-1.2335016 0.88285476 3.3080001
-1.2252678 0.88312167 3.3090003
-1.2137194 0.88098657 3.3010001
-1.2054985 0.88125342 3.302
-1.2135839 0.89353013 3.348
-1.2091942 0.89673275 3.3600001
-1.2015265 0.89753342 3.3630002
-1.193134 0.89780033 3.3640001
-1.1847363 0.89806724 3.3650002
-1.1756341 0.89780033 3.3640001
-1.1658436 0.89699966 3.3610001
-1.1557245 0.89593214 3.3570001
-1.1456261 0.89486462 3.3530002
-1.1362267 0.8943308 3.3510001
-1.1278472 0.89459771 3.3520002
-1.1081108 0.88579053 3.3190002
-1.0988153 0.88525671 3.3170002
-1.0908451 0.88579053 3.3190002
-1.0678653 0.87404758 3.2750001
-1.0483491 0.86497349 3.2410002
-1.0395983 0.86470664 3.2400002
-1.0200317 0.85536563 3.2050002
-1.0123267 0.85589945 3.2070003
-1.0052375 0.85696697 3.2110002
-0.99812734 0.85803449 3.2150002
-0.994075 0.86177087 3.2290001
-1.0009391 0.8751151 3.279
-0.99331826 0.87591577 3.2820001
-0.99288327 0.88312167 3.3090003
-0.99587709 0.89353013 3.348
-0.99011737 0.89619905 3.3580003
-0.98576683 0.90020227 3.3730001
-0.98452455 0.90714127 3.3990002
-0.97625768 0.90767509 3.4010003
-0.96769601 0.90794194 3.4020002
-0.95856547 0.90767509 3.4010003
-0.94999862 0.90794194 3.4020002
-0.95332223 0.91968483 3.4460001
-0.94490719 0.92021865 3.4480002
-0.93702459 0.92128617 3.4520001
-0.92939001 0.92262065 3.4570003
-0.92146319 0.92368817 3.4610002
-0.913252 0.92448884 3.4640002
-0.90398079 0.92422187 3.4630001
-0.89549035 0.92475569 3.4650002
-0.88673365 0.92502254 3.4660001
-0.87797165 0.92528945 3.4670002
-0.87897927 0.93596488 3.5070002
-0.87010545 0.93623173 3.5080001
-0.86122644 0.93649858 3.5090001
-0.85234225 0.93676549 3.5100002
-0.85186094 0.94637334 3.5460002
-0.84168714 0.94530576 3.5420001
-0.83200425 0.94477206 3.5400002
-0.82233173 0.94423825 3.5380001
-0.81289941 0.9439714 3.5370002
-0.80347234 0.94370455 3.5360003
-0.78394234 0.93142784 3.4900002
-0.77464259 0.93116087 3.4890001
-0.75657123 0.92021865 3.4480002
-0.74955434 0.92262065 3.4570003
-0.72813767 0.90714127 3.3990002
-0.7203548 0.9084757 3.404
-0.70063198 0.89459771 3.3520002
-0.69150043 0.89406395 3.3500001
-0.67300367 0.88125342 3.302
-0.66401267 0.88071972 3.3000002
-0.65483338 0.87991905 3.2970002
-0.63998532 0.87137872 3.2650001
-0.62530375 0.86283839 3.233
-0.61594051 0.86150402 3.2280002
-0.60716796 0.8609702 3.2260001
-0.59933382 0.86177087 3.2290001
-0.59166712 0.86283839 3.233
-0.58614451 0.86710852 3.2490001
-0.57609349 0.86470664 3.2400002
-0.56784129 0.86497349 3.2410002
-0.55958396 0.8652404 3.2420001
-0.5509814 0.86497349 3.2410002
-0.54004037 0.8609702 3.2260001
-0.53197908 0.86150402 3.2280002
-0.52358288 0.86150402 3.2280002
-0.51550597 0.86203778 3.2300003
-0.50726163 0.86230469 3.2310002
-0.4991664 0.86283839 3.233
-0.4922753 0.8655073 3.2430003
-0.4839893 0.86577415 3.2440002
-0.47525829 0.8652404 3.2420001
-0.46581784 0.86337221 3.2350001
-0.45712066 0.86283839 3.233
-0.44843394 0.86230469 3.2310002
-0.43962142 0.86150402 3.2280002
-0.43095806 0.8609702 3.2260001
-0.42204317 0.85990268 3.2220001
-0.4134059 0.85936892 3.2200003
-0.40515631 0.85963583 3.2210002
-0.3973943 0.8609702 3.2260001
-0.36868009 0.87244624 3.2690001
-0.36425397 0.882321 3.3060002
-0.34684592 0.88178724 3.3040001
-0.33825213 0.88178724 3.3040001
-0.11659835 0.51215184 1.9190001
-0.1115488 0.51188499 1.9180001
-0.10605999 0.50948298 1.909
-0.099876598 0.50334466 1.886
-0.093460366 0.49533811 1.8560001
-0.082541011 0.48786533 1.8280001
-0.07753101 0.48626405 1.8220001
-0.071593367 0.47825748 1.7920001
-0.066782907 0.47718996 1.7880001
-0.060116775 0.46171063 1.7300001
-0.05555268 0.46117684 1.728
-0.050969448 0.4603762 1.725
-0.046428766 0.45984241 1.723
-0.041922837 0.45957556 1.7220001
-0.037443846 0.45957556 1.7220001
-0.033175435 0.46251127 1.733
-0.028684383 0.46277818 1.7340001
-0.024202067 0.46331194 1.7360001
-0.019709347 0.4638457 1.738
-0.015223701 0.46491325 1.7420001
-0.010717247 0.46598077 1.7460001
-0.0061935224 0.4673152 1.751
-0.0016540837 0.47158536 1.7670001
0.0029469437 0.47238603 1.7700001
0.0076019713 0.47558862 1.7820001
0.012195817 0.47398734 1.7760001
0.016947811 0.47772372 1.7900001
0.021676084 0.47932503 1.7960001
0.026376886 0.47985879 1.7980001
0.031070825 0.4801257 1.7990001
0.035769962 0.48039255 1.8000001
0.040361937 0.47932503 1.7960001
0.045083545 0.47985879 1.7980001
0.049621835 0.47852439 1.7930001
0.05470936 0.48226073 1.807
0.059475195 0.48279452 1.8090001
0.064074032 0.48199388 1.8060001
0.068923824 0.4830614 1.8100001
0.073713057 0.48359516 1.812
0.080503657 0.49640566 1.8600001
0.085800417 0.49907452 1.8700001
0.09226431 0.5078817 1.9030001
0.09695866 0.50654727 1.8980001
0.10404285 0.51722264 1.9380001
0.1110537 0.52656358 1.973
0.11659776 0.52843183 1.9800001
0.12383844 0.53750592 2.0140002
0.13023053 0.54230982 2.0320001
0.13778333 0.55138385 2.066
0.14343426 0.55245149 2.0700002
0.14917785 0.55378586 2.075
0.15517096 0.55592096 2.0830002
0.16089731 0.55698848 2.0870001
0.16656476 0.55778915 2.0900002
0.17224781 0.55858982 2.0930002
0.17735219 0.55752224 2.089
0.18269826 0.55725539 2.0880001
0.19318938 0.55618781 2.0840001
0.19889586 0.55698848 2.0870001
0.20403051 0.55618781 2.0840001
0.20874754 0.55431968 2.0770001
0.21445923 0.55512029 2.0800002
0.21965796 0.55458653 2.0780001
0.22495461 0.55431968 2.0770001
0.23024605 0.55405277 2.0760002
0.23575932 0.55431968 2.0770001
0.24139388 0.55485338 2.079
0.24715756 0.55565405 2.082
0.2530582 0.55672163 2.0860002
0.25897962 0.55778915 2.0900002
0.26492184 0.55885667 2.0940001
0.27256337 0.56339371 2.1110001
0.27976647 0.56686324 2.1240001
0.28582835 0.56793076 2.128
0.29382792 0.57273471 2.1460001
0.29982829 0.57353538 2.1490002
0.30655488 0.57567042 2.1570001
0.3127442 0.57673794 2.161
0.323816 0.5866127 2.1980002
0.32998288 0.58741337 2.2010002
0.33631784 0.58848089 2.2050002
0.34267363 0.58954841 2.2090001
0.34889251 0.59034908 2.2120001
0.35512698 0.59114975 2.2150002
0.36137709 0.59195042 2.2180002
0.36747724 0.59248412 2.22
0.37341967 0.59275109 2.2210002
0.37953803 0.59328479 2.223
0.38549349 0.59355175 2.2240002
0.3914541 0.5938186 2.2250001
0.39741996 0.59408545 2.2260001
0.4975403 0.57593727 2.158
0.5033865 0.57620418 2.1590002
0.50923789 0.57647109 2.1600001
0.51485616 0.57647109 2.1600001
0.52047437 0.57647109 2.1600001
0.52633613 0.57673794 2.161
0.53244936 0.57727176 2.1630001
0.53907043 0.57833928 2.1670001
0.54520965 0.57887304 2.1690001
0.55161315 0.57967371 2.1720002
0.5575192 0.57994056 2.1730001
0.56317127 0.57994056 2.1730001
0.56987035 0.58100808 2.177
0.58557892 0.59114975 2.2150002
0.58973837 0.58954841 2.2090001
0.60464942 0.5986225 2.243
0.61021137 0.59835565 2.2420001
0.62730867 0.60929787 2.283
0.63352424 0.60956478 2.2840002
0.65150392 0.62104082 2.3270001
0.65755659 0.62104082 2.3270001
0.67416078 0.63091558 2.3640001
0.68203628 0.63251686 2.3700001
0.68878156 0.63305068 2.3720002
0.69612312 0.6341182 2.3760002
0.69993848 0.6319831 2.368
0.70729053 0.63305068 2.3720002
0.7143625 0.63385129 2.375
0.7211467 0.63438505 2.3770001
0.72732943 0.63438505 2.3770001
0.73320353 0.6341182 2.3760002
0.73907232 0.63385129 2.375
0.74462229 0.63331753 2.3730001
0.75427479 0.63625324 2.3840001
0.75983769 0.63571954 2.3820002
0.76313907 0.63331753 2.3730001
0.76801455 0.63225001 2.3690002
0.77286917 0.63118243 2.365
0.77836192 0.63064867 2.3630002
0.77388424 0.62210834 2.3310001
0.77894342 0.62130773 2.3280001
0.7836498 0.62024015 2.3240001
0.78867531 0.61943954 2.3210001
0.79436988 0.61917263 2.3200002
0.80040425 0.61917263 2.3200002
0.80713385 0.61970639 2.322
0.81422406 0.62050706 2.325
0.81815463 0.61890572 2.319
0.82205415 0.61730444 2.3130002
0.83129227 0.61970639 2.322
0.85644412 0.63385129 2.375
0.86480087 0.63545257 2.381
0.87209135 0.63625324 2.3840001
0.8841868 0.64052343 2.4000001
0.88931632 0.63972276 2.3970001
0.89816624 0.64159095 2.404
0.90742886 0.64372605 2.4120002
0.91673309 0.64586109 2.4200001
0.92569751 0.64772928 2.427
0.93431431 0.64933062 2.4330001
0.94180256 0.65013129 2.4360001
0.96215057 0.65973914 2.4720001
0.97014755 0.66080666 2.4760001
0.97855991 0.66214108 2.4810002
0.98699814 0.66347551 2.4860001
0.99546248 0.66480994 2.4910002
1.0027461 0.6653437 2.493
1.0092305 0.6653437 2.493
1.0136777 0.66400927 2.4880002
1.0217892 0.66507679 2.4920001
1.0270331 0.66427612 2.4890001
1.0306004 0.66240799 2.4820001
1.0362206 0.66187418 2.48
1.0199679 0.64746243 2.4260001
1.0317774 0.65093195 2.4390001
1.011732 0.63438505 2.3770001
1.0179147 0.63438505 2.3770001
1.0215123 0.63278377 2.3710001
1.0242119 0.63064867 2.3630002
1.0107365 0.61863887 2.3180001
1.0180815 0.61943954 2.3210001
1.0060277 0.60849726 2.2800002
1.0101827 0.60742968 2.276
1.0165491 0.60769659 2.2770002
1.0220226 0.60742968 2.276
1.0279425 0.60742968 2.276
1.0338625 0.60742968 2.276
1.0402393 0.60769659 2.2770002
1.0479997 0.60876411 2.2810001
1.0525465 0.6079635 2.2780001
1.0724112 0.61597002 2.3080001
1.0802834 0.61703753 2.312
1.0872366 0.61757135 2.3140001
1.0937279 0.6178382 2.3150001
1.1002244 0.61810511 2.3160002
1.1052932 0.61757135 2.3140001
1.1098711 0.61677068 2.3110001
1.1139506 0.61570317 2.3070002
1.1175239 0.61436868 2.302
1.1205832 0.6127674 2.296
1.1245925 0.61169982 2.2920001
1.1280879 0.61036545 2.2870002
1.1315571 0.60903102 2.2820001
1.1359972 0.60823035 2.279
1.1364133 0.60529464 2.2680001
1.1423125 0.60529464 2.2680001
1.1477054 0.60502779 2.2670002
1.1536019 0.60502779 2.2670002
1.1600099 0.60529464 2.2680001
-1.7753638 0.90897566 3.3730001
-1.7781128 0.91490436 3.3950002
-1.7739725 0.91732967 3.404
-1.7656372 0.9175992 3.4050002
-1.7562647 0.91732967 3.404
-1.7468975 0.9170602 3.4030001
-1.7380462 0.9170602 3.4030001
-1.7271621 0.91598231 3.3990002
-1.7173102 0.9154433 3.3970001
-1.7114921 0.9170602 3.4030001
-1.7036415 0.9175992 3.4050002
-1.6952826 0.91786867 3.4060001
-1.7042483 0.92757016 3.4420002
-1.6952956 0.92757016 3.4420002
-1.684873 0.92676169 3.4390001
-1.6725167 0.92487532 3.4320002
-1.6640747 0.92514479 3.4330001
-1.6527348 0.92379737 3.4280002
-1.6428592 0.92325836 3.4260001
-1.6325173 0.92244995 3.4230001
-1.6226654 0.921911 3.4210002
-1.5972569 0.91247898 3.3860002
-1.5748452 0.90466386 3.3570001
-1.5651805 0.90412492 3.3550003
-1.5550623 0.9033165 3.3520002
-1.544037 0.90196902 3.3470001
-1.5362488 0.90250802 3.3490002
-1.52845 0.90304697 3.3510001
-1.5210946 0.90385538 3.3540001
-1.5105671 0.90277749 3.3500001
-1.5014052 0.90250802 3.3490002
-1.4931401 0.90277749 3.3500001
-1.4994924 0.91193998 3.3840001
-1.4911309 0.91220951 3.3850002
-1.484516 0.91355687 3.3900001
-1.4770045 0.91436535 3.3930001
-1.4694772 0.91517383 3.3960001
-1.4615043 0.91571283 3.3980002
-1.4522386 0.9154433 3.3970001
-1.4438277 0.91571283 3.3980002
-1.4354117 0.91598231 3.3990002
-1.4274102 0.91652131 3.4010003
-1.3989602 0.90385538 3.3540001
-1.3910654 0.90439439 3.3560002
-1.3662722 0.89388442 3.3170002
-1.3580539 0.89415389 3.3180001
-1.3490169 0.89388442 3.3170002
-1.3403893 0.89388442 3.3170002
-1.3317617 0.89388442 3.3170002
-1.3235328 0.89415389 3.3180001
-1.315299 0.89442343 3.3190002
-1.3070599 0.8946929 3.3200002
-1.2992065 0.8952319 3.3220003
-1.2932854 0.89711827 3.3290002
-1.2850124 0.89738774 3.3300002
-1.2767341 0.89765722 3.3310001
-1.2688315 0.89819622 3.3330002
-1.2609185 0.89873523 3.3350003
-1.2529949 0.89927417 3.3370001
-1.2446882 0.89954364 3.3380001
-1.2363763 0.89981318 3.3390002
-1.2269559 0.89927417 3.3370001
-1.2303239 0.90816718 3.3700001
-1.221921 0.90843666 3.3710001
-1.2120732 0.90762824 3.3680003
-1.2036703 0.90789771 3.3690002
-1.1945527 0.90762824 3.3680003
-1.1861445 0.90789771 3.3690002
-1.1766826 0.90735871 3.3670001
-1.1672312 0.90681976 3.3650002
-1.1557245 0.90466386 3.3570001
-1.1446011 0.90277749 3.3500001
-1.1348704 0.90196902 3.3470001
-1.1258283 0.90169954 3.3460002
-1.1007656 0.88849473 3.2970002
-1.09219 0.88849473 3.2970002
-1.0734258 0.88014072 3.2660003
-1.066887 0.88175756 3.2720001
-1.0376748 0.86451048 3.2080002
-1.0286889 0.86397153 3.2060001
-1.0197135 0.86343259 3.2040002
-1.0120111 0.86397153 3.2060001
-1.0049244 0.86504942 3.21
-0.99812734 0.8663969 3.2150002
-0.99315143 0.86936122 3.2260001
-0.99178147 0.87555939 3.2490001
-0.99331826 0.8844524 3.2820001
-0.99288327 0.89172858 3.3090003
-0.9869535 0.89415389 3.3180001
-0.99041218 0.90520287 3.3590002
-0.98401332 0.90735871 3.3670001
-0.97583503 0.90789771 3.3690002
-0.96707201 0.90789771 3.3690002
-0.95916253 0.90870619 3.3720002
-0.95123744 0.90951467 3.3750002
-0.94329667 0.91032308 3.3780003
-0.9350636 0.91086203 3.3800001
-0.92682022 0.91140103 3.3820002
-0.92752403 0.92083299 3.4170001
-0.91890514 0.92110252 3.4180002
-0.91054726 0.92164147 3.4200001
-0.90217906 0.92218047 3.4220002
-0.89406133 0.92298889 3.4250002
-0.88541126 0.92325836 3.4260001
-0.88647783 0.93376833 3.4650002
-0.87771833 0.9340378 3.4660001
-0.86870319 0.9340378 3.4660001
-0.85993606 0.93430734 3.4670002
-0.86098105 0.94535625 3.5080001
-0.85209942 0.94562572 3.5090001
-0.84249192 0.94508678 3.5070002
-0.84144956 0.95424926 3.5410001
-0.83176923 0.95371032 3.5390003
-0.82209933 0.95317131 3.5370002
-0.81266958 0.95290184 3.5360003
-0.80324507 0.95263231 3.5350001
-0.78416693 0.94077498 3.4910002
-0.77486467 0.9405055 3.4900002
-0.76490933 0.9394275 3.4860001
-0.74955434 0.93161249 3.4570003
-0.73820603 0.92864811 3.4460001
-0.7199316 0.91679072 3.4020002
-0.70920169 0.91436535 3.3930001
-0.69129401 0.90250802 3.3490002
-0.67320752 0.89011168 3.3030002
-0.6642139 0.88957268 3.3010001
-0.65503198 0.8887642 3.2980001
-0.6403774 0.88041019 3.2670002
-0.62549716 0.87151712 3.2340002
-0.61632216 0.87043923 3.2300003
-0.60754442 0.86990023 3.2280002
-0.59951949 0.87043923 3.2300003
-0.59166712 0.87124759 3.233
-0.58434039 0.87286454 3.2390001
-0.57591563 0.87286454 3.2390001
-0.56749088 0.87286454 3.2390001
-0.55906612 0.87286454 3.2390001
-0.55132139 0.87394255 3.2430003
-0.54271877 0.87367302 3.2420001
-0.52802384 0.86343259 3.2040002
-0.5214743 0.8663969 3.2150002
-0.51359075 0.86720538 3.2180002
-0.5038076 0.86477995 3.2090001
-0.49576971 0.86531895 3.2110002
-0.4878732 0.86612743 3.2140002
-0.47996104 0.86693591 3.2170002
-0.47188663 0.86747479 3.2190001
-0.46509787 0.87043923 3.2300003
-0.45669651 0.87043923 3.2300003
-0.44815633 0.8701697 3.2290001
-0.43948525 0.86963075 3.2270002
-0.43082449 0.86909175 3.2250001
-0.42151922 0.86720538 3.2180002
-0.41314912 0.86720538 3.2180002
-0.40490472 0.86747479 3.2190001
-0.39776385 0.8701697 3.2290001
-0.39213854 0.87636787 3.2520001
-0.38497779 0.87933224 3.2630002
-0.3802982 0.88822526 3.2960002
-0.37228906 0.88957268 3.3010001
-0.36425397 0.8909201 3.3060002
-0.35748374 0.89550138 3.3230002
-0.34957534 0.89738774 3.3300002
-0.34122103 0.89819622 3.3330002
-0.11102536 0.5144484 1.909
-0.098976336 0.50366896 1.8690001
-0.077403352 0.49019471 1.8190001
-0.071473509 0.48211011 1.789
-0.060082026 0.46594098 1.7290001
-0.055520531 0.46540201 1.7270001
-0.050939903 0.46459356 1.7240001
-0.046401821 0.46405458 1.7220001
-0.041922837 0.46405458 1.7220001
-0.037422102 0.46378508 1.7210001
-0.032964863 0.46405458 1.7220001
-0.02851896 0.46459356 1.7240001
-0.024229949 0.46836632 1.738
-0.019743368 0.4691748 1.7410001
-0.015249919 0.47025275 1.7450001
-0.0107418 0.47160017 1.7500001
-0.006207671 0.4729476 1.7550001
-0.001657828 0.47725937 1.771
0.0029552686 0.47833732 1.7750001
0.0076147695 0.48103219 1.7850001
0.012230152 0.47995424 1.7810001
0.017061427 0.48561344 1.802
0.021784706 0.48642188 1.8050001
0.026464907 0.48615241 1.8040001
0.031174451 0.48642188 1.8050001
0.035889193 0.48669139 1.8060001
0.040564194 0.48642188 1.8050001
0.045233991 0.48615241 1.8040001
0.050064638 0.48749986 1.8090001
0.054921295 0.48884729 1.8140001
0.05980397 0.49019471 1.8190001
0.064641684 0.49100316 1.8220001
0.069571175 0.49235061 1.8270001
0.074241906 0.4918116 1.825
0.080503657 0.50124365 1.8600001
0.085800417 0.5039385 1.8700001
0.09216734 0.51229256 1.9010001
0.098899879 0.52172452 1.9360001
0.10398916 0.52199399 1.937
0.1110537 0.53169549 1.973
0.11659776 0.53358191 1.9800001
0.12377694 0.54247493 2.013
0.13016644 0.54732567 2.0310001
0.13778333 0.55675769 2.066
0.14322637 0.55702722 2.0670002
0.14910597 0.55891359 2.0740001
0.15360658 0.55567974 2.062
0.17027268 0.55756611 2.069
0.21659246 0.55217642 2.049
0.2530582 0.56214744 2.0860002
0.25897962 0.56322539 2.0900002
0.26504833 0.56457275 2.095
0.27191782 0.56753713 2.1060002
0.27963477 0.5721184 2.1230001
0.28569403 0.57319635 2.1270001
0.29204798 0.57481325 2.1330001
0.29954922 0.57858604 2.1470001
0.30669698 0.58155036 2.158
0.3127442 0.58235884 2.161
0.32425797 0.59313828 2.2010002
0.33058256 0.59421623 2.2050002
0.33692792 0.59529418 2.2090001
0.34329411 0.59637207 2.2130001
0.34952343 0.59718055 2.2160001
0.35576829 0.59798902 2.2190001
0.36202878 0.5987975 2.2220001
0.36830491 0.59960592 2.2250001
0.37426031 0.59987539 2.2260001
0.38039169 0.6004144 2.2280002
0.38636014 0.60068387 2.2290001
0.39233375 0.60095334 2.23
0.39831266 0.60122287 2.2310002
0.40520233 0.60283971 2.237
0.41120464 0.60310924 2.2380002
0.4975403 0.58155036 2.158
0.50361967 0.58208936 2.1600001
0.50994515 0.58289784 2.1630001
0.51557124 0.58289784 2.1630001
0.52119726 0.58289784 2.1630001
0.52731043 0.58343679 2.1650002
0.53318787 0.58370626 2.1660001
0.54006547 0.58505368 2.171
0.54621506 0.58559269 2.1730001
0.55262899 0.58640116 2.1760001
0.55803239 0.58613169 2.1750002
0.57561129 0.59852803 2.2210002
0.5803411 0.59745002 2.217
0.59430313 0.60580415 2.2480001
0.6004172 0.60607356 2.2490001
0.61516273 0.61496663 2.2820001
0.62137043 0.6152361 2.283
0.63665104 0.62439865 2.3170002
0.64378709 0.6254766 2.3210001
0.65150392 0.62709349 2.3270001
0.65812171 0.62763244 2.329
0.67444593 0.63733393 2.365
0.68174851 0.63841194 2.3690002
0.68820077 0.63868141 2.3700001
0.69465816 0.63895082 2.3710001
0.70673686 0.64434057 2.391
0.7144469 0.645688 2.3960001
0.72128052 0.64622694 2.398
0.72782123 0.64649647 2.3990002
0.73620301 0.6483829 2.4060001
0.74246114 0.6483829 2.4060001
0.74840802 0.64811343 2.4050002
0.75183946 0.645688 2.3960001
0.75522399 0.64326262 2.3870001
0.7607947 0.64272368 2.3850002
0.77085727 0.64595747 2.3970001
0.77709192 0.64595747 2.3970001
0.78299981 0.645688 2.3960001
0.78857315 0.64514905 2.3940001
0.78251612 0.63517809 2.3570001
0.78764296 0.63436961 2.3540001
0.79241699 0.63329166 2.3500001
0.79751009 0.63248318 2.3470001
0.80292988 0.63194424 2.345
0.80902928 0.63194424 2.345
0.81547642 0.63221377 2.3460002
0.82262903 0.63302219 2.3490002
0.83015007 0.63410014 2.3530002
0.83769196 0.63517809 2.3570001
0.84453863 0.63571703 2.3590002
0.86654115 0.64757442 2.4030001
0.87424433 0.64865232 2.4070001
0.8819682 0.64973027 2.411
0.89118665 0.65188617 2.4190001
0.89970469 0.65350312 2.4250002
0.91198999 0.65781492 2.4410002
0.91721046 0.65700644 2.4380002
0.92620355 0.65889281 2.4450002
0.93523294 0.66077924 2.4520001
0.94468278 0.66293508 2.46
0.95378768 0.66482145 2.467
0.96176136 0.66589946 2.4710002
0.97053945 0.66751641 2.4770002
0.97934872 0.66913325 2.483
0.98779225 0.67048073 2.4880002
0.99546248 0.67128921 2.4910002
1.0027461 0.67182809 2.493
1.0165174 0.6766789 2.5110002
1.0214188 0.67560095 2.5070002
1.0238394 0.6729061 2.4970002
1.028271 0.67155862 2.4920001
1.0335071 0.6707502 2.4890001
1.0403988 0.67101967 2.49
1.0262744 0.65781492 2.4410002
1.0347387 0.65916228 2.4460001
1.0398238 0.65835381 2.4430001
1.0239099 0.64434057 2.391
1.0361608 0.64811343 2.4050002
1.0242119 0.63679498 2.3630002
1.028178 0.6354475 2.358
1.0172042 0.62493759 2.319
1.0205886 0.6233207 2.3130002
1.0097389 0.6130802 2.2750001
1.0161027 0.61334968 2.276
1.0211246 0.61281073 2.2740002
1.0279425 0.61334968 2.276
1.0338625 0.61334968 2.276
1.0406961 0.61388868 2.2780001
1.0466214 0.61388868 2.2780001
1.0530086 0.61415815 2.279
1.0700879 0.62062585 2.3030002
1.0779471 0.6217038 2.3070002
1.0853573 0.62251222 2.3100002
1.0918381 0.62278169 2.3110001
1.0983241 0.62305117 2.312
1.1033825 0.62251222 2.3100002
1.1079501 0.6217038 2.3070002
1.1120193 0.62062585 2.3030002
1.1160675 0.61954784 2.299
1.119119 0.61793101 2.2930002
1.1231205 0.616853 2.289
1.1266081 0.61550564 2.2840002
1.1261026 0.61200231 2.2710001
1.1305141 0.61119384 2.2680001
1.1354111 0.61065483 2.266
1.1408014 0.61038536 2.2650001
1.1466928 0.61038536 2.2650001
1.1536019 0.61092436 2.2670002
1.1605213 0.61146331 2.2690001
-1.7922069 0.92645574 3.4050002
-1.7796841 0.92455113 3.3980002
-1.7755359 0.92699987 3.4070001
-1.7661557 0.92672777 3.4060001
-1.7562647 0.92618358 3.404
-1.7463841 0.92563945 3.4020002
-1.7370248 0.92536736 3.4010003
-1.7246214 0.92346269 3.3940001
-1.715288 0.92319065 3.3930001
-1.7109892 0.92563945 3.4020002
-1.7031411 0.92618358 3.404
-1.6952826 0.92672777 3.4060001
-1.6869186 0.92699987 3.4070001
-1.6800271 0.92808825 3.4110003
-1.6721349 0.92863238 3.4130001
-1.6691054 0.93189746 3.4250002
-1.6626204 0.93325782 3.4300001
-1.6508063 0.93162537 3.4240003
-1.6414206 0.93135327 3.4230001
-1.6315635 0.93080908 3.4210002
-1.6226654 0.93080908 3.4210002
-1.5972569 0.92128605 3.3860002
-1.5898571 0.92210233 3.3890002
-1.5805758 0.92183024 3.3880002
-1.5712994 0.92155814 3.3870001
-1.5458822 0.91176301 3.3510001
-1.537625 0.91203511 3.3520002
-1.5298184 0.91257924 3.3540001
-1.5224551 0.91339552 3.3570001
-1.52184 0.91829312 3.3750002
-1.5161996 0.92019773 3.3820002
-1.5091858 0.92128605 3.3860002
-1.5008217 0.92155814 3.3870001
-1.4924525 0.92183024 3.3880002
-1.4853919 0.92291856 3.3920002
-1.4783105 0.92400694 3.3960001
-1.4707754 0.92482316 3.3990002
-1.4627947 0.92536736 3.4010003
-1.4539486 0.92536736 3.4010003
-1.4455273 0.92563945 3.4020002
-1.4371009 0.92591149 3.4030001
-1.4286692 0.92618358 3.404
-1.4206496 0.92672777 3.4060001
-1.4117904 0.92672777 3.4060001
-1.3889267 0.91747683 3.3720002
-1.3797467 0.91720474 3.3710001
-1.3604045 0.9101305 3.3450003
-1.3521081 0.9104026 3.3460002
-1.3434051 0.9104026 3.3460002
-1.3347019 0.9104026 3.3460002
-1.3259989 0.9104026 3.3460002
-1.3169022 0.9101305 3.3450003
-1.3074194 0.90958631 3.3430002
-1.2948393 0.90686548 3.3330002
-1.2861701 0.90686548 3.3330002
-1.2775007 0.90686548 3.3330002
-1.2692121 0.90713751 3.3340001
-1.2612965 0.9076817 3.3360002
-1.2537459 0.90849799 3.3390002
-1.2454339 0.90877002 3.3400002
-1.2371167 0.90904212 3.3410001
-1.2446047 0.92101395 3.3850002
-1.2310542 0.91747683 3.3720002
-1.222646 0.91774893 3.3730001
-1.2145923 0.91829312 3.3750002
-1.2058139 0.91829312 3.3750002
-1.196326 0.91774893 3.3730001
-1.1875528 0.91774893 3.3730001
-1.1780804 0.91720474 3.3710001
-1.1686187 0.91666061 3.3690002
-1.155036 0.91285139 3.3550003
-1.143576 0.91067463 3.3470001
-1.1338532 0.90985841 3.3440001
-1.1244824 0.90931427 3.3420002
-1.0990962 0.89570987 3.2920001
-1.0809269 0.88781941 3.2630002
-1.0730971 0.88836354 3.2650001
-1.0538445 0.87938464 3.2320001
-1.0373514 0.87258255 3.2070003
-1.0283681 0.8720383 3.2050002
-1.003482 0.85788983 3.1530001
-0.99528098 0.85788983 3.1530001
-0.98739302 0.85816187 3.154
-0.9903658 0.867957 3.1900001
-0.98268425 0.86850119 3.1920002
-0.99147624 0.88373804 3.2480001
-0.98211998 0.88292181 3.2450001
-0.99138296 0.8989749 3.3040001
-0.98070699 0.89707035 3.2970002
-0.97360551 0.89843071 3.302
-0.96647823 0.89979118 3.3070002
-0.95903522 0.9008795 3.3110001
-0.95071018 0.90115166 3.3120003
-0.94238001 0.90142369 3.3130002
-0.93432647 0.90196788 3.3150001
-0.92626262 0.90251207 3.3170002
-0.91818821 0.90305626 3.3190002
-0.91284388 0.90632123 3.3310001
-0.90417987 0.90632123 3.3310001
-0.89470923 0.905505 3.3280001
-0.8953715 0.91502804 3.3630002
-0.88688785 0.91530013 3.3640001
-0.87839895 0.91557223 3.3650002
-0.87920874 0.92563945 3.4020002
-0.87087166 0.92618358 3.404
-0.86277741 0.92699987 3.4070001
-0.85516888 0.92836028 3.4120002
-0.85323906 0.93597871 3.4400001
-0.84600961 0.93788338 3.4470003
-0.84481442 0.94659013 3.4790001
-0.83600569 0.94686222 3.4800003
-0.83455825 0.95556897 3.5120001
-0.82518834 0.95529687 3.5110002
-0.81582373 0.95502484 3.5100002
-0.80531514 0.95339233 3.5040002
-0.79529214 0.95230395 3.5000002
-0.78461617 0.95039934 3.4930003
-0.7750867 0.94985515 3.4910002
-0.75679064 0.93842751 3.4490001
-0.74760288 0.93815541 3.4480002
-0.73820603 0.93761122 3.4460001
-0.7201432 0.92591149 3.4030001
-0.70084095 0.9123072 3.3530002
-0.69129401 0.91121882 3.3490002
-0.67341131 0.8989749 3.3040001
-0.66441506 0.89843071 3.302
-0.65503198 0.89734238 3.2980001
-0.64057338 0.88917977 3.2680001
-0.62588394 0.88047302 3.2360001
-0.61689454 0.87965673 3.233
-0.60810906 0.8791126 3.2310002
-0.59970504 0.8791126 3.2310002
-0.59166712 0.87965673 3.233
-0.58470124 0.88183343 3.2410002
-0.57609349 0.8815614 3.2400002
-0.56749088 0.88128924 3.2390001
-0.55889356 0.88101721 3.2380002
-0.54911137 0.87884051 3.2300003
-0.53669232 0.8723104 3.2060001
-0.52736461 0.87067789 3.2
-0.51920348 0.87094998 3.2010002
-0.50481278 0.86061066 3.1630001
-0.4967427 0.86088276 3.164
-0.49005699 0.86360365 3.1740003
-0.48256031 0.86496407 3.1790001
-0.47488835 0.86605239 3.1830001
-0.46675587 0.86632454 3.1840003
-0.45890614 0.86714071 3.187
-0.45174778 0.86931747 3.1950002
-0.44385383 0.87013376 3.1980002
-0.43594432 0.87094998 3.2010002
-0.42788553 0.87149411 3.2030001
-0.42073327 0.87394291 3.2120001
-0.41250718 0.87421501 3.2130001
-0.4044016 0.8747592 3.2150002
-0.39825657 0.87965673 3.233
-0.39165622 0.88373804 3.2480001
-0.38544974 0.88890773 3.2670002
-0.37752903 0.89026815 3.2720001
-0.37251464 0.89870286 3.3030002
-0.3644743 0.90006328 3.3080001
-0.35694584 0.90278411 3.3180001
-0.34926042 0.90523291 3.3270001
-0.34111866 0.90659338 3.3320003
-0.33255178 0.90686548 3.3330002
-0.32378533 0.90659338 3.3320003
-0.31502411 0.90632123 3.3310001
-0.30222133 0.89407736 3.2860003
-0.29063565 0.88482642 3.2520001
-0.2792269 0.87557548 3.2180002
-0.11096721 0.51914167 1.9080001
-0.082811937 0.49900728 1.8340001
-0.067081712 0.48866796 1.7960001
-0.060047273 0.47016606 1.728
-0.055520531 0.46989399 1.7270001
-0.050939903 0.46907771 1.7240001
-0.046401821 0.46853355 1.7220001
-0.041922837 0.46853355 1.7220001
-0.037422102 0.46826145 1.7210001
-0.032964863 0.46853355 1.7220001
-0.02851896 0.46907771 1.7240001
-0.024076596 0.46989399 1.7270001
-0.019629966 0.47098231 1.7310001
-0.015171265 0.47234276 1.7360001
-0.010686556 0.47370318 1.7410001
-0.0061722999 0.47479156 1.7450001
-0.0016615725 0.48295414 1.7750001
0.0029635932 0.48431459 1.7800001
0.0076318332 0.48676336 1.789
0.012381227 0.49057257 1.8030001
0.0170993 0.49138886 1.8060001
0.021820912 0.49193302 1.8080001
0.026523588 0.49193302 1.8080001
0.031260807 0.49247718 1.8100001
0.035988554 0.49274927 1.8110001
0.040586669 0.49138886 1.8060001
0.045309212 0.49166092 1.807
0.050064638 0.49220511 1.8090001
0.05480019 0.49247718 1.8100001
0.059902601 0.49574223 1.8220001
0.064712644 0.49628642 1.8240001
0.069685414 0.4979189 1.83
0.080417089 0.50553733 1.858
0.086075708 0.51043493 1.876
0.092118859 0.51696497 1.9000001
0.098899879 0.5267601 1.9360001
0.10468708 0.53056931 1.95
0.11730441 0.54199702 1.9920001
0.12426886 0.54988754 2.0210001
0.12984599 0.55124789 2.026
0.13711643 0.55941051 2.056
0.25897962 0.56866151 2.0900002
0.26517487 0.57029402 2.0960002
0.27165958 0.57247072 2.1040001
0.27937132 0.57709616 2.1210001
0.28542539 0.57818449 2.125
0.29163721 0.57954496 2.1300001
0.29940972 0.58389837 2.1460001
0.30669698 0.58716339 2.158
0.31259951 0.58770758 2.1600001
0.3245526 0.59940732 2.2030001
0.33103234 0.60076779 2.2080002
0.337538 0.60212815 2.2130001
0.34391463 0.60321653 2.217
0.35015431 0.60403275 2.22
0.35640958 0.60484904 2.223
0.36268049 0.60566533 2.2260001
0.368967 0.60648155 2.2290001
0.37510097 0.60702574 2.2310002
0.38124534 0.60756987 2.233
0.38722682 0.60784203 2.2340002
0.39321345 0.60811412 2.2350001
0.3992053 0.60838616 2.2360001
0.40556461 0.60920244 2.2390001
0.41157207 0.60947448 2.24
0.50385278 0.58797961 2.161
0.51041669 0.58906806 2.1650002
0.51604795 0.58906806 2.1650002
0.52192014 0.58934009 2.1660001
0.52779752 0.58961219 2.1670001
0.5336802 0.58988428 2.1680002
0.54081178 0.59151679 2.174
0.54696918 0.59206098 2.1760001
0.55339092 0.59287721 2.1790001
0.56726879 0.60158402 2.2110002
0.5769071 0.60566533 2.2260001
0.59133536 0.61464417 2.2590001
0.60408479 0.62171841 2.2850001
0.6191051 0.63096935 2.319
0.63241535 0.63831574 2.3460002
0.65267032 0.65246421 2.398
0.65918249 0.65273637 2.3990002
0.67540783 0.6625315 2.4350002
0.68230128 0.66307563 2.437
0.68948776 0.66389185 2.4400001
0.69611949 0.66416401 2.4410002
0.6995908 0.66144317 2.4310002
0.70794666 0.66334772 2.4380002
0.71340901 0.6625315 2.4350002
0.71885574 0.66171521 2.4320002
0.72398883 0.66062689 2.4280002
0.72910088 0.65953851 2.424
0.73419225 0.65845013 2.4200001
0.73712099 0.6554572 2.4090002
0.74338686 0.6554572 2.4090002
0.74934161 0.65518516 2.4080002
0.75968415 0.65872222 2.421
0.76566488 0.65845013 2.4200001
0.76908839 0.65600133 2.411
0.77182204 0.6530084 2.4000001
0.77774036 0.65273637 2.3990002
0.78332657 0.65219218 2.3970001
0.78857315 0.65137589 2.3940001
0.79380399 0.6505596 2.391
0.7983501 0.64919919 2.3860002
0.8032074 0.64811087 2.3820002
0.8083837 0.64729464 2.3790002
0.81422907 0.64702249 2.378
0.82075942 0.64729464 2.3790002
0.82799011 0.64811087 2.3820002
0.83558655 0.64919919 2.3860002
0.84355658 0.6505596 2.391
0.85119742 0.65164804 2.3950002
0.85814285 0.65219218 2.3970001
0.87916249 0.66334772 2.4380002
0.88659346 0.66416401 2.4410002
0.89440584 0.66525233 2.4450002
0.90408105 0.66770113 2.4540002
0.91046405 0.66770113 2.4540002
0.918715 0.66906154 2.4590001
0.92736822 0.67069405 2.4650002
0.93643153 0.67259866 2.4720001
0.94553119 0.67450327 2.4790001
0.95466721 0.67640787 2.4860001
0.96847922 0.68157756 2.5050001
0.97460562 0.68130547 2.5040002
0.98307765 0.68266588 2.5090001
0.99394238 0.68565887 2.5200002
1.0000999 0.68538672 2.5190001
1.0062523 0.68511468 2.5180001
1.0128018 0.68511468 2.5180001
1.0177319 0.68402636 2.5140002
1.0222336 0.68266588 2.5090001
1.0254794 0.68048918 2.5010002
1.0299215 0.67912877 2.4960001
1.0347527 0.67804039 2.4920001
1.0395632 0.67695206 2.4880002
1.0334218 0.66878945 2.4580002
1.0381229 0.66770113 2.4540002
1.041952 0.66606861 2.4480002
1.0350441 0.6576339 2.4170001
1.0340066 0.6530084 2.4000001
1.0363481 0.6505596 2.391
1.027306 0.64103663 2.3560002
1.0308021 0.63940406 2.3500001
1.0201473 0.62906474 2.312
1.0248295 0.62824851 2.309
1.0156562 0.61899757 2.2750001
1.0215735 0.61899757 2.2750001
1.0288459 0.6198138 2.2780001
1.0338625 0.61926961 2.276
1.0406961 0.6198138 2.2780001
1.0475403 0.62035805 2.2800002
1.0548568 0.62117422 2.283
1.068694 0.62579978 2.3000002
1.0760782 0.626616 2.3030002
1.0834779 0.62743223 2.306
1.0899483 0.62770438 2.3070002
1.0964239 0.62797642 2.3080001
1.1014718 0.62743223 2.306
1.1060292 0.626616 2.3030002
1.1100878 0.62552762 2.299
1.1146111 0.62471133 2.296
1.1176549 0.62307888 2.2900002
1.1216486 0.6219905 2.286
1.1256216 0.62090218 2.2820001
1.1295736 0.6198138 2.2780001
1.1345018 0.61926961 2.276
1.1404219 0.61926961 2.276
1.1463418 0.61926961 2.276
1.152768 0.61954176 2.2770002
1.1602172 0.62035805 2.2800002
1.1676818 0.62117422 2.283
-1.8048391 0.94190472 3.4290001
-1.7938251 0.94080597 3.4250002
-1.7776206 0.93696034 3.4110003
-1.7671928 0.93613631 3.4080002
-1.7562647 0.93503749 3.404
-1.7463841 0.93448812 3.4020002
-1.7360033 0.93366408 3.3990002
-1.7205564 0.93009311 3.3860002
-1.7117493 0.93009311 3.3860002
-1.6969069 0.92679685 3.3740001
-1.68663 0.92597276 3.3710001
-1.675871 0.92487407 3.3670001
-1.6676085 0.92514879 3.3680003
