# .PCD v0.7 - Point Cloud Data file format
VERSION 0.7
FIELDS x y z
SIZE 4 4 4
TYPE F F F
COUNT 1 1 1
WIDTH 1485
HEIGHT 1
VIEWPOINT 0 0 0 1 0 0 0
POINTS 1485
DATA ascii
0.95649076 -0.72446704 2.4130001
0.95917463 -0.72176486 2.404
0.96542615 -0.72176486 2.404
0.97167766 -0.72176486 2.404
0.97792912 -0.72176486 2.404
0.98377126 -0.72146469 2.4030001
0.98960817 -0.72116446 2.4020002
0.99543977 -0.72086418 2.401
1.0012664 -0.72056395 2.4000001
1.0070876 -0.72026378 2.3990002
1.0179724 -0.72356629 2.4100001
1.0229645 -0.72266561 2.4070001
1.0253755 -0.71996349 2.398
1.0359133 -0.7229659 2.4080002
1.0374144 -0.71966326 2.3970001
1.0497432 -0.72386652 2.411
1.0573269 -0.72476721 2.414
1.0649263 -0.72566795 2.4170001
1.0720979 -0.72626847 2.4190001
1.0788342 -0.72656864 2.4200001
1.0855757 -0.72686887 2.421
1.0914203 -0.72656864 2.4200001
1.0968063 -0.72596824 2.4180002
1.1017256 -0.7250675 2.4150002
1.1066293 -0.72416681 2.4120002
1.1115173 -0.72326612 2.4090002
1.1163899 -0.72236538 2.4060001
1.1189137 -0.71996349 2.398
1.123742 -0.71906281 2.3950002
1.1280828 -0.71786183 2.391
1.1257612 -0.71245766 2.3730001
1.1424263 -0.71906281 2.3950002
1.1424195 -0.71515977 2.3820002
1.1495781 -0.71576017 2.3840001
1.1552927 -0.71546 2.3830001
-0.89715207 -0.48306081 1.623
-0.89403194 -0.48365611 1.6250001
-0.89035368 -0.48395374 1.626
-0.88667035 -0.48425138 1.6270001
-0.88298178 -0.48454899 1.628
-0.87874818 -0.48454899 1.628
-0.87505192 -0.48484665 1.6290001
-0.87135041 -0.48514429 1.6300001
-0.86711156 -0.48514429 1.6300001
-0.8628729 -0.48514429 1.6300001
-0.8591609 -0.48544189 1.631
-0.85491949 -0.48544189 1.631
-0.85067821 -0.48544189 1.631
-0.845918 -0.48514429 1.6300001
-0.84167916 -0.48514429 1.6300001
-0.83641291 -0.48454899 1.628
-0.83217937 -0.48454899 1.628
-0.82743728 -0.48425138 1.6270001
-0.82270038 -0.48395374 1.626
-0.81746536 -0.48335847 1.6240001
-0.81224066 -0.4827632 1.6220001
-0.8095172 -0.48365611 1.6250001
-0.80529147 -0.48365611 1.6250001
-0.80007982 -0.48306081 1.623
-0.79487854 -0.48246557 1.6210001
-0.78676111 -0.48008448 1.613
-0.78111118 -0.4791916 1.6100001
-0.77547669 -0.47829869 1.6070001
-0.76985788 -0.47740579 1.6040001
-0.76425469 -0.47651288 1.6010001
-0.75914186 -0.47591761 1.5990001
-0.75403947 -0.47532237 1.5970001
-0.74894738 -0.47472706 1.595
-0.74433267 -0.47442943 1.5940001
-0.73972321 -0.47413179 1.5930001
-0.74112177 -0.47770339 1.605
-0.73740721 -0.47800106 1.6060001
-0.73323089 -0.47800106 1.6060001
-0.72406101 -0.47472706 1.595
-0.72036469 -0.4750247 1.5960001
-0.71711189 -0.47561997 1.598
-0.71384865 -0.47621521 1.6
-0.71057504 -0.47681051 1.6020001
-0.70729107 -0.47740579 1.6040001
-0.7039966 -0.47800106 1.6060001
-0.69807732 -0.47681051 1.6020001
-0.69304508 -0.47621521 1.6
-0.68802321 -0.47561997 1.598
-0.68301177 -0.4750247 1.5960001
-0.67801082 -0.47442943 1.5940001
-0.67302018 -0.47383419 1.5920001
-0.66846007 -0.47353652 1.5910001
-0.66432279 -0.47353652 1.5910001
-0.65977049 -0.47323889 1.59
-0.65563577 -0.47323889 1.59
-0.65150106 -0.47323889 1.59
-0.6477735 -0.47353652 1.5910001
-0.64323163 -0.47323889 1.59
-0.63909692 -0.47323889 1.59
-0.6349622 -0.47323889 1.59
-0.63082749 -0.47323889 1.59
-0.62669277 -0.47323889 1.59
-0.62647349 -0.47621521 1.6
-0.62153488 -0.47561997 1.598
-0.61622036 -0.47472706 1.595
-0.61092138 -0.47383419 1.5920001
-0.60563809 -0.47294128 1.5890001
-0.60112739 -0.47264361 1.5880001
-0.59624594 -0.47204837 1.5860001
-0.59137499 -0.4714531 1.5840001
-0.58651435 -0.4708578 1.582
-0.58166414 -0.47026253 1.58
-0.57682443 -0.46966729 1.5780001
-0.57235789 -0.46936962 1.577
-0.56789672 -0.46907201 1.5760001
-0.56379837 -0.46907201 1.5760001
-0.55970007 -0.46907201 1.5760001
-0.55595428 -0.46936962 1.577
-0.55325317 -0.47056019 1.5810001
-0.55018383 -0.4714531 1.5840001
-0.54778844 -0.47294128 1.5890001
-0.54570913 -0.47472706 1.595
-0.54325908 -0.47621521 1.6
-0.54111999 -0.47800106 1.6060001
-0.53861535 -0.47948921 1.6110001
-0.53608465 -0.48097739 1.6160001
-0.53319895 -0.48216796 1.6200001
-0.53029233 -0.48335847 1.6240001
-0.52671701 -0.48395374 1.626
-0.52281004 -0.48425138 1.6270001
-0.51889783 -0.48454899 1.628
-0.51466429 -0.48454899 1.628
-0.50980371 -0.48395374 1.626
-0.50526446 -0.48365611 1.6250001
-0.50042206 -0.48306081 1.623
-0.4958958 -0.4827632 1.6220001
-0.49076846 -0.48187029 1.6190001
-0.48776045 -0.48306081 1.623
-0.48324201 -0.4827632 1.6220001
-0.4784334 -0.48216796 1.6200001
-0.47363523 -0.48157266 1.618
-0.46884742 -0.48097739 1.6160001
-0.46435758 -0.48067978 1.6150001
-0.45958799 -0.48008448 1.613
-0.45511115 -0.47978687 1.6120001
-0.45063946 -0.47948921 1.6110001
-0.44312465 -0.47591761 1.5990001
-0.43951556 -0.47651288 1.6010001
-0.43616802 -0.47740579 1.6040001
-0.43280491 -0.47829869 1.6070001
-0.43075976 -0.48067978 1.6150001
-0.42682412 -0.48097739 1.6160001
-0.42236033 -0.48067978 1.6150001
-0.41790164 -0.48038211 1.6140001
-0.41319191 -0.47978687 1.6120001
-0.40798506 -0.4785963 1.608
-0.40279904 -0.47740579 1.6040001
-0.39738533 -0.47591761 1.5990001
-0.39175168 -0.47413179 1.5930001
-0.38614926 -0.47234601 1.5870001
-0.38033727 -0.47026253 1.58
-0.37503797 -0.46877438 1.575
-0.36976466 -0.4672862 1.5700001
-0.36475027 -0.46609569 1.5660001
-0.35998702 -0.46520278 1.5630001
-0.35546708 -0.46460751 1.5610001
-0.35095751 -0.46401221 1.559
-0.34690341 -0.46401221 1.559
-0.34306926 -0.46430987 1.5600001
-0.33901256 -0.46430987 1.5600001
-0.33517057 -0.46460751 1.5610001
-0.33132336 -0.46490511 1.562
-0.32747099 -0.46520278 1.5630001
-0.32340646 -0.46520278 1.5630001
-0.31954628 -0.46550041 1.5640001
-0.31568089 -0.46579802 1.5650001
-0.31200939 -0.46639329 1.567
-0.30832753 -0.46698859 1.5690001
-0.30463526 -0.46758384 1.5710001
-0.30093259 -0.46817911 1.5730001
-0.29721946 -0.46877438 1.575
-0.29349598 -0.46936962 1.577
-0.28957859 -0.46966729 1.5780001
-0.28529415 -0.46936962 1.577
-0.28101495 -0.46907201 1.5760001
-0.27761945 -0.47026253 1.58
-0.27351072 -0.47026253 1.58
-0.26906103 -0.46966729 1.5780001
-0.26411799 -0.46817911 1.5730001
-0.26052341 -0.46907201 1.5760001
-0.25626236 -0.46877438 1.575
-0.25216666 -0.46877438 1.575
-0.24807096 -0.46877438 1.575
-0.24366543 -0.46817911 1.5730001
-0.23972723 -0.46847677 1.5740001
-0.23578382 -0.46877438 1.575
-0.2316881 -0.46877438 1.575
-0.2278814 -0.46936962 1.577
-0.22406431 -0.46996492 1.5790001
-0.22023681 -0.47056019 1.5810001
-0.21612547 -0.47056019 1.5810001
-0.21214826 -0.4708578 1.582
-0.20829737 -0.4714531 1.5840001
-0.20417824 -0.4714531 1.5840001
-0.20018542 -0.47175071 1.585
-0.19618741 -0.47204837 1.5860001
-0.19254749 -0.47323889 1.59
-0.18841277 -0.47323889 1.59
-0.18427806 -0.47323889 1.59
-0.18003005 -0.47294128 1.5890001
-0.17567654 -0.47234601 1.5870001
-0.17154962 -0.47234601 1.5870001
-0.1673172 -0.47204837 1.5860001
-0.16308999 -0.47175071 1.585
-0.15886799 -0.4714531 1.5840001
-0.15474887 -0.4714531 1.5840001
-0.15053466 -0.47115546 1.5830001
-0.14632565 -0.4708578 1.582
-0.14221174 -0.4708578 1.582
-0.13801053 -0.47056019 1.5810001
-0.13398391 -0.4708578 1.582
-0.12978791 -0.47056019 1.5810001
-0.12527913 -0.46907201 1.5760001
-0.12125771 -0.46936962 1.577
-0.11723109 -0.46966729 1.5780001
-0.11312758 -0.46966729 1.5780001
-0.10902407 -0.46966729 1.5780001
-0.10485406 -0.46936962 1.577
-0.10081705 -0.46966729 1.5780001
-0.096652247 -0.46936962 1.577
-0.092492655 -0.46907201 1.5760001
-0.088450424 -0.46936962 1.577
-0.084296025 -0.46907201 1.5760001
-0.080197714 -0.46907201 1.5760001
-0.076051116 -0.46877438 1.575
-0.071864039 -0.46817911 1.5730001
-0.067687362 -0.46758384 1.5710001
-0.06352108 -0.46698859 1.5690001
-0.059213664 -0.46520278 1.5630001
-0.055078592 -0.46460751 1.5610001
-0.050986603 -0.46430987 1.5600001
-0.046869732 -0.4637146 1.5580001
-0.042790748 -0.46341693 1.557
-0.038716964 -0.46311933 1.5560001
-0.034648377 -0.46282169 1.5550001
-0.030624358 -0.46311933 1.5560001
-0.026560977 -0.46282169 1.5550001
-0.022502793 -0.46252403 1.554
-0.018378532 -0.46044061 1.5470001
-0.014346357 -0.460143 1.5460001
-0.010406209 -0.4637146 1.5580001
-0.0063587851 -0.46401221 1.559
-0.0023061605 -0.46430987 1.5600001
0.001752787 -0.46490511 1.562
0.005818414 -0.46520278 1.5630001
0.009895565 -0.46579802 1.5650001
0.013974194 -0.46609569 1.5660001
0.018069549 -0.46669093 1.5680001
0.022189429 -0.46758384 1.5710001
0.026308186 -0.46817911 1.5730001
0.030418023 -0.46847677 1.5740001
0.034576908 -0.46936962 1.577
0.038702343 -0.46966729 1.5780001
0.042887237 -0.47056019 1.5810001
0.047028273 -0.4708578 1.582
0.051174518 -0.47115546 1.5830001
0.055360891 -0.47175071 1.585
0.059557665 -0.47234601 1.5870001
0.063764833 -0.47294128 1.5890001
0.067939676 -0.47323889 1.59
0.072074391 -0.47323889 1.59
0.076209113 -0.47323889 1.59
0.080293305 -0.47294128 1.5890001
0.084372282 -0.47264361 1.5880001
0.088390335 -0.47204837 1.5860001
0.092339657 -0.47115546 1.5830001
0.09627337 -0.47026253 1.58
0.10019148 -0.46936962 1.577
0.10409399 -0.46847677 1.5740001
0.10798091 -0.46758384 1.5710001
0.11185221 -0.46669093 1.5680001
0.11570791 -0.46579802 1.5650001
0.11962455 -0.46520278 1.5630001
0.12345165 -0.46430987 1.5600001
0.12734488 -0.4637146 1.5580001
0.13122772 -0.46311933 1.5560001
0.13518707 -0.46282169 1.5550001
0.13914123 -0.46252403 1.554
0.14262952 -0.46073824 1.5480001
0.14665501 -0.46073824 1.5480001
0.14999914 -0.45865482 1.5410001
0.15390648 -0.45835719 1.5400001
0.15791118 -0.45835719 1.5400001
0.16191588 -0.45835719 1.5400001
0.16592057 -0.45835719 1.5400001
0.16981493 -0.45805952 1.539
0.17381701 -0.45805952 1.539
0.17770357 -0.45776191 1.5380001
0.18182121 -0.45805952 1.539
0.18703072 -0.46103588 1.549
0.19105883 -0.46103588 1.549
0.19508691 -0.46103588 1.549
0.19911501 -0.46103588 1.549
0.20156939 -0.45746428 1.5370001
0.20636876 -0.45925009 1.5430001
0.2099722 -0.45835719 1.5400001
0.21481059 -0.460143 1.5460001
0.21798161 -0.45835719 1.5400001
0.22213045 -0.45865482 1.5410001
0.22643125 -0.45925009 1.5430001
0.23133981 -0.46103588 1.549
0.23551986 -0.46133351 1.5500001
0.23955055 -0.46133351 1.5500001
0.24373843 -0.46163115 1.5510001
0.24777171 -0.46163115 1.5510001
0.25164264 -0.46133351 1.5500001
0.25567335 -0.46133351 1.5500001
0.2595365 -0.46103588 1.549
0.26339445 -0.46073824 1.5480001
0.2672472 -0.46044061 1.5470001
0.2712701 -0.46044061 1.5470001
0.27511504 -0.460143 1.5460001
0.27859366 -0.45925009 1.5430001
0.28260618 -0.45925009 1.5430001
0.28624716 -0.45865482 1.5410001
0.28987774 -0.45805952 1.539
0.29368889 -0.45776191 1.5380001
0.29768839 -0.45776191 1.5380001
0.30129555 -0.45716661 1.536
0.30509111 -0.45686901 1.5350001
0.30888143 -0.45657134 1.534
0.3128705 -0.45657134 1.534
0.3168596 -0.45657134 1.534
0.3208487 -0.45657134 1.534
0.3248378 -0.45657134 1.534
0.33011305 -0.45835719 1.5400001
0.33390078 -0.45805952 1.539
0.33702463 -0.45686901 1.5350001
0.34101632 -0.45686901 1.5350001
0.34500805 -0.45686901 1.5350001
0.34899971 -0.45686901 1.5350001
0.3529914 -0.45686901 1.5350001
0.3569831 -0.45686901 1.5350001
0.36097479 -0.45686901 1.5350001
0.36496648 -0.45686901 1.5350001
0.36943889 -0.45746428 1.5370001
0.37367877 -0.45776191 1.5380001
0.37841496 -0.45865482 1.5410001
0.38316673 -0.4595477 1.544
0.38818488 -0.46073824 1.5480001
0.3929705 -0.46163115 1.5510001
0.39751574 -0.46222642 1.5530001
0.40000281 -0.46044061 1.5470001
0.41212189 -0.46966729 1.5780001
0.67523819 -0.71938264 2.4170001
0.6826514 -0.72057313 2.421
0.6898008 -0.72146606 2.424
0.69667864 -0.72206134 2.4260001
0.70356691 -0.72265667 2.4280002
0.71017319 -0.72295427 2.4290001
0.7167846 -0.72325188 2.4300001
0.7231037 -0.72325188 2.4300001
0.72942281 -0.72325188 2.4300001
0.73574185 -0.72325188 2.4300001
0.74206102 -0.72325188 2.4300001
0.74838012 -0.72325188 2.4300001
0.75469917 -0.72325188 2.4300001
0.76101828 -0.72325188 2.4300001
0.76733744 -0.72325188 2.4300001
0.77333814 -0.72295427 2.4290001
0.77933365 -0.72265667 2.4280002
0.78532398 -0.722359 2.427
0.79065669 -0.72146606 2.424
0.79498756 -0.71968031 2.4180002
0.79895568 -0.71759683 2.411
0.80689538 -0.71908504 2.4160001
0.8121683 -0.7181921 2.4130001
0.81708646 -0.71700156 2.4090002
0.82266736 -0.71640629 2.4070001
0.82823795 -0.71581107 2.4050002
0.83379799 -0.71521574 2.4030001
0.83759987 -0.71313232 2.3960001
0.84277397 -0.71223944 2.3930001
0.84757769 -0.7110489 2.3890002
0.85307544 -0.71045363 2.3870001
0.85820276 -0.70956069 2.3840001
0.86367708 -0.70896548 2.3820002
0.86914098 -0.70837015 2.3800001
0.87496233 -0.70807254 2.3790002
0.88151908 -0.70837015 2.3800001
0.8884542 -0.70896548 2.3820002
0.89502406 -0.70926309 2.3830001
0.90235543 -0.71015596 2.3860002
0.912368 -0.71313232 2.3960001
0.91974884 -0.71402526 2.3990002
0.9271453 -0.71491814 2.4020002
0.9353345 -0.71640629 2.4070001
0.94276732 -0.71729922 2.4100001
0.95021582 -0.7181921 2.4130001
0.95728356 -0.71878743 2.4150002
0.95957369 -0.71581107 2.4050002
0.96582782 -0.71581107 2.4050002
0.9720819 -0.71581107 2.4050002
0.97833598 -0.71581107 2.4050002
0.98418063 -0.71551341 2.404
0.99043214 -0.71551341 2.404
0.99626899 -0.71521574 2.4030001
1.0021007 -0.71491814 2.4020002
1.0079272 -0.71462047 2.401
1.0141708 -0.71462047 2.401
1.0242395 -0.71729922 2.4100001
1.0309342 -0.71759683 2.411
1.0372038 -0.71759683 2.411
1.0374144 -0.71342993 2.3970001
1.0493078 -0.71729922 2.4100001
1.056451 -0.71789449 2.4120002
1.0636044 -0.71848971 2.414
1.0703251 -0.71878743 2.4150002
1.077051 -0.71908504 2.4160001
1.0833337 -0.71908504 2.4160001
1.0896163 -0.71908504 2.4160001
1.0949918 -0.71848971 2.414
1.1003571 -0.71789449 2.4120002
1.1057116 -0.71729922 2.4100001
1.111056 -0.71670395 2.4080002
1.1159259 -0.71581107 2.4050002
1.1203134 -0.71462047 2.401
1.1256188 -0.71402526 2.3990002
1.1309136 -0.71342993 2.3970001
1.1404676 -0.71551341 2.404
1.1448112 -0.71432287 2.4000001
1.1433786 -0.70956069 2.3840001
1.1510247 -0.71045363 2.3870001
1.1645041 -0.71491814 2.4020002
-0.89825761 -0.47943041 1.6250001
-0.89458209 -0.47972542 1.626
-0.8914488 -0.48031548 1.628
-0.88776028 -0.48061055 1.6290001
-0.88352418 -0.48061055 1.6290001
-0.8798278 -0.48090559 1.6300001
-0.87558907 -0.48090559 1.6300001
-0.87188494 -0.48120061 1.631
-0.86764354 -0.48120061 1.631
-0.86340219 -0.48120061 1.631
-0.8591609 -0.48120061 1.631
-0.85491949 -0.48120061 1.631
-0.85067821 -0.48120061 1.631
-0.84643692 -0.48120061 1.631
-0.84167916 -0.48090559 1.6300001
-0.8369267 -0.48061055 1.6290001
-0.8326906 -0.48061055 1.6290001
-0.82794577 -0.48031548 1.628
-0.82320637 -0.48002046 1.6270001
-0.81847209 -0.47972542 1.626
-0.81374294 -0.47943041 1.6250001
-0.81051356 -0.48002046 1.6270001
-0.80578703 -0.47972542 1.626
-0.8010658 -0.47943041 1.6250001
-0.79242671 -0.47677508 1.6160001
-0.78676111 -0.47588998 1.613
-0.78111118 -0.47500491 1.6100001
-0.77499413 -0.47382474 1.6060001
-0.76937789 -0.47293964 1.603
-0.76377732 -0.47205454 1.6
-0.75866705 -0.47146448 1.598
-0.75403947 -0.47116947 1.5970001
-0.75505161 -0.47441483 1.608
-0.75087011 -0.47441483 1.608
-0.74715298 -0.47470987 1.6090001
-0.74296886 -0.47470987 1.6090001
-0.73924387 -0.47500491 1.6100001
-0.73551369 -0.47529992 1.6110001
-0.73132437 -0.47529992 1.6110001
-0.72171873 -0.47175953 1.5990001
-0.71845818 -0.47234958 1.6010001
-0.71563327 -0.47323468 1.6040001
-0.71234924 -0.47382474 1.6060001
-0.71170062 -0.47618502 1.6140001
-0.70794183 -0.47648007 1.6150001
-0.70374209 -0.47648007 1.6150001
-0.69521081 -0.4735297 1.605
-0.69017601 -0.47293964 1.603
-0.68515158 -0.47234958 1.6010001
-0.68013757 -0.47175953 1.5990001
-0.67555666 -0.47146448 1.598
-0.67098099 -0.47116947 1.5970001
-0.6668281 -0.47116947 1.5970001
-0.66226023 -0.47087443 1.5960001
-0.6581099 -0.47087443 1.5960001
-0.65395957 -0.47087443 1.5960001
-0.64980924 -0.47087443 1.5960001
-0.64525437 -0.47057936 1.595
-0.64110667 -0.47057936 1.595
-0.6369589 -0.47057936 1.595
-0.63241452 -0.47028434 1.5940001
-0.62826937 -0.47028434 1.5940001
-0.62764812 -0.47293964 1.603
-0.62270176 -0.47234958 1.6010001
-0.61699307 -0.47116947 1.5970001
-0.61168885 -0.47028434 1.5940001
-0.60640037 -0.46939924 1.5910001
-0.60188448 -0.4691042 1.59
-0.59699786 -0.46851414 1.5880001
-0.59212166 -0.46792409 1.5860001
-0.5872559 -0.467334 1.5840001
-0.58203232 -0.4664489 1.5810001
-0.57755548 -0.46615386 1.58
-0.57308382 -0.46585885 1.5790001
-0.5686174 -0.4655638 1.5780001
-0.56451386 -0.4655638 1.5780001
-0.56041032 -0.4655638 1.5780001
-0.5566594 -0.46585885 1.5790001
-0.55360305 -0.46674392 1.582
-0.55053115 -0.46762902 1.585
-0.54778844 -0.46880919 1.5890001
-0.54570913 -0.47057936 1.595
-0.54325908 -0.47205454 1.6
-0.54111999 -0.47382474 1.6060001
-0.53894967 -0.47559497 1.6120001
-0.53641641 -0.47707015 1.6170001
-0.53352803 -0.47825027 1.6210001
-0.53061885 -0.47943041 1.6250001
-0.52704096 -0.48002046 1.6270001
-0.5234527 -0.48061055 1.6290001
-0.5192166 -0.48061055 1.6290001
-0.51498044 -0.48061055 1.6290001
-0.51074433 -0.48061055 1.6290001
-0.50619721 -0.48031548 1.628
-0.50134706 -0.47972542 1.626
-0.49650726 -0.47913536 1.6240001
-0.49198097 -0.47884032 1.623
-0.4868589 -0.47795525 1.6200001
-0.48383787 -0.47913536 1.6240001
-0.47931936 -0.47884032 1.623
-0.47451341 -0.47825027 1.6210001
-0.46971783 -0.47766021 1.6190001
-0.46522012 -0.47736517 1.618
-0.46044278 -0.47677508 1.6160001
-0.45567578 -0.47618502 1.6140001
-0.45119891 -0.47588998 1.613
-0.44423315 -0.47293964 1.603
-0.44061366 -0.4735297 1.605
-0.43725571 -0.47441483 1.608
-0.43522882 -0.47677508 1.6160001
-0.43129319 -0.47707015 1.6170001
-0.42708826 -0.47707015 1.6170001
-0.42262182 -0.47677508 1.6160001
-0.41816056 -0.47648007 1.6150001
-0.41344821 -0.47588998 1.613
-0.40849254 -0.47500491 1.6100001
-0.40305015 -0.4735297 1.605
-0.39788234 -0.47234958 1.6010001
-0.3922435 -0.47057936 1.595
-0.3866359 -0.46880919 1.5890001
-0.38105944 -0.46703896 1.5830001
-0.37575233 -0.4655638 1.5780001
-0.37047124 -0.46408862 1.5730001
-0.36544904 -0.46290851 1.5690001
-0.36067799 -0.46202341 1.5660001
-0.35637796 -0.46172836 1.5650001
-0.35185799 -0.46113828 1.5630001
-0.34779352 -0.46113828 1.5630001
-0.34372902 -0.46113828 1.5630001
-0.33944717 -0.46084324 1.562
-0.33559999 -0.46113828 1.5630001
-0.33174762 -0.46143335 1.5640001
-0.32789001 -0.46172836 1.5650001
-0.32382029 -0.46172836 1.5650001
-0.31995493 -0.46202341 1.5660001
-0.31608433 -0.46231842 1.567
-0.31240764 -0.46290851 1.5690001
-0.30872056 -0.46349856 1.5710001
-0.30502307 -0.46408862 1.5730001
-0.30150652 -0.46497375 1.5760001
-0.29778561 -0.4655638 1.5780001
-0.2940543 -0.46615386 1.58
-0.29031262 -0.46674392 1.582
-0.28619868 -0.46674392 1.582
-0.28208479 -0.46674392 1.582
-0.27849799 -0.46762902 1.585
-0.27437627 -0.46762902 1.585
-0.27008408 -0.467334 1.5840001
-0.26579705 -0.46703896 1.5830001
-0.26134995 -0.4664489 1.5810001
-0.2572386 -0.4664489 1.5810001
-0.25312731 -0.4664489 1.5810001
-0.24791346 -0.46438369 1.5740001
-0.24443994 -0.4655638 1.5780001
-0.24033645 -0.4655638 1.5780001
-0.23638265 -0.46585885 1.5790001
-0.23242362 -0.46615386 1.58
-0.22860391 -0.46674392 1.582
-0.22477382 -0.467334 1.5840001
-0.22065471 -0.467334 1.5840001
-0.21680899 -0.46792409 1.5860001
-0.21281879 -0.46821913 1.5870001
-0.20856036 -0.46792409 1.5860001
-0.20456494 -0.46821913 1.5870001
-0.20043804 -0.46821913 1.5870001
-0.19631112 -0.46821913 1.5870001
-0.1923053 -0.46851414 1.5880001
-0.18805729 -0.46821913 1.5870001
-0.18427806 -0.4691042 1.59
-0.18003005 -0.46880919 1.5890001
-0.17567654 -0.46821913 1.5870001
-0.17154962 -0.46821913 1.5870001
-0.1673172 -0.46792409 1.5860001
-0.16308999 -0.46762902 1.585
-0.15886799 -0.467334 1.5840001
-0.15474887 -0.467334 1.5840001
-0.15053466 -0.46703896 1.5830001
-0.14641814 -0.46703896 1.5830001
-0.14221174 -0.46674392 1.582
-0.13809782 -0.46674392 1.582
-0.13364513 -0.4655638 1.5780001
-0.12954164 -0.4655638 1.5780001
-0.12551761 -0.46585885 1.5790001
-0.1214115 -0.46585885 1.5790001
-0.11730539 -0.46585885 1.5790001
-0.11327096 -0.46615386 1.58
-0.10916225 -0.46615386 1.58
-0.10505354 -0.46615386 1.58
-0.10088094 -0.46585885 1.5790001
-0.096774831 -0.46585885 1.5790001
-0.09266872 -0.46585885 1.5790001
-0.088506512 -0.4655638 1.5780001
-0.084296025 -0.46497375 1.5760001
-0.080248602 -0.46526876 1.577
-0.076195978 -0.4655638 1.5780001
-0.0720011 -0.46497375 1.5760001
-0.067859702 -0.4646787 1.575
-0.063480593 -0.46261346 1.5680001
-0.059365198 -0.46231842 1.567
-0.055219725 -0.46172836 1.5650001
-0.051117342 -0.46143335 1.5640001
-0.046990063 -0.46084324 1.562
-0.042900681 -0.46054822 1.5610001
-0.038791608 -0.45995814 1.559
-0.034715224 -0.45966312 1.5580001
-0.030703083 -0.46025318 1.5600001
-0.026595138 -0.45936808 1.557
-0.022546235 -0.45936808 1.557
-0.018402291 -0.4570078 1.549
-0.014364916 -0.45671278 1.5480001
-0.010412889 -0.45995814 1.559
-0.0063587851 -0.45995814 1.559
-0.0023061605 -0.46025318 1.5600001
0.001751665 -0.46054822 1.5610001
0.0058146915 -0.46084324 1.562
0.0098892422 -0.46143335 1.5640001
0.01396527 -0.46172836 1.5650001
0.018058024 -0.46231842 1.567
0.02216118 -0.46290851 1.5690001
0.026274737 -0.46349856 1.5710001
0.030398697 -0.46408862 1.5730001
0.034554984 -0.46497375 1.5760001
0.038702343 -0.4655638 1.5780001
0.042887237 -0.4664489 1.5810001
0.047028273 -0.46674392 1.582
0.051206846 -0.467334 1.5840001
0.055430748 -0.46821913 1.5870001
0.059632719 -0.46880919 1.5890001
0.063885219 -0.46969429 1.5920001
0.068067864 -0.4699893 1.5930001
0.072255716 -0.47028434 1.5940001
0.076400839 -0.47028434 1.5940001
0.080495425 -0.4699893 1.5930001
0.08458481 -0.46969429 1.5920001
0.088613264 -0.4691042 1.59
0.092572987 -0.46821913 1.5870001
0.096517108 -0.467334 1.5840001
0.10038208 -0.46615386 1.58
0.10429239 -0.46526876 1.577
0.10811837 -0.46408862 1.5730001
0.11199488 -0.46320352 1.5700001
0.11585578 -0.46231842 1.567
0.11970109 -0.46143335 1.5640001
0.12353079 -0.46054822 1.5610001
0.12734488 -0.45966312 1.5580001
0.13122772 -0.45907307 1.5560001
0.13405688 -0.45494255 1.5420001
0.13797726 -0.45464757 1.5410001
0.14189242 -0.4543525 1.5400001
0.14589711 -0.4543525 1.5400001
0.14980446 -0.45405746 1.539
0.15380654 -0.45405746 1.539
0.15770611 -0.45376244 1.5380001
0.16170561 -0.45376244 1.5380001
0.16559735 -0.4534674 1.5370001
0.16959424 -0.4534674 1.5370001
0.17347819 -0.45317236 1.536
0.17874345 -0.45641774 1.5470001
0.18276635 -0.45641774 1.5470001
0.1866685 -0.45612273 1.5460001
0.1906888 -0.45612273 1.5460001
0.19470909 -0.45612273 1.5460001
0.1987294 -0.45612273 1.5460001
0.2027497 -0.45612273 1.5460001
0.20676999 -0.45612273 1.5460001
0.20915413 -0.4525823 1.534
0.21467164 -0.45582768 1.5450001
0.21727388 -0.45287734 1.5350001
0.22155385 -0.4534674 1.5370001
0.22584425 -0.45405746 1.539
0.23044373 -0.45523763 1.5430001
0.23460816 -0.45553264 1.544
0.2387778 -0.45582768 1.5450001
0.24295267 -0.45612273 1.5460001
0.2471327 -0.45641774 1.5470001
0.25115559 -0.45641774 1.5470001
0.25517851 -0.45641774 1.5470001
0.25903386 -0.45612273 1.5460001
0.26305416 -0.45612273 1.5460001
0.2669017 -0.45582768 1.5450001
0.27091938 -0.45582768 1.5450001
0.27475911 -0.45553264 1.544
0.27859366 -0.45523763 1.5430001
0.28242302 -0.45494255 1.5420001
0.28624716 -0.45464757 1.5410001
0.29006609 -0.4543525 1.5400001
0.29387984 -0.45405746 1.539
0.29768839 -0.45376244 1.5380001
0.30149171 -0.4534674 1.5370001
0.30528986 -0.45317236 1.536
0.30908281 -0.45287734 1.5350001
0.31307447 -0.45287734 1.5350001
0.31706616 -0.45287734 1.5350001
0.32105789 -0.45287734 1.5350001
0.32632011 -0.45464757 1.5410001
0.33032742 -0.45464757 1.5410001
0.33411774 -0.4543525 1.5400001
0.33724418 -0.45317236 1.536
0.34123847 -0.45317236 1.536
0.34523278 -0.45317236 1.536
0.34945443 -0.4534674 1.5370001
0.3536813 -0.45376244 1.5380001
0.35768077 -0.45376244 1.5380001
0.36191544 -0.45405746 1.539
0.36639306 -0.45464757 1.5410001
0.3706407 -0.45494255 1.5420001
0.37489361 -0.45523763 1.5430001
0.37964278 -0.45612273 1.5460001
0.38440755 -0.4570078 1.549
0.38943872 -0.45818797 1.5530001
0.39423734 -0.45907307 1.5560001
0.39879557 -0.45966312 1.5580001
0.40388131 -0.46084324 1.562
0.42152393 -0.47618502 1.6140001
0.64813668 -0.69746059 2.3640001
0.67579699 -0.71368748 2.4190001
0.68293339 -0.71457261 2.4220002
0.69008541 -0.71545768 2.4250002
0.69725299 -0.71634281 2.4280002
0.70414644 -0.71693283 2.4300001
0.71075797 -0.71722794 2.4310002
0.71737456 -0.71752292 2.4320002
0.72369891 -0.71752292 2.4320002
0.73002321 -0.71752292 2.4320002
0.73634744 -0.71752292 2.4320002
0.74267179 -0.71752292 2.4320002
0.74899608 -0.71752292 2.4320002
0.75532037 -0.71752292 2.4320002
0.76164466 -0.71752292 2.4320002
0.76765323 -0.71722794 2.4310002
0.77365649 -0.71693283 2.4300001
0.77997559 -0.71693283 2.4300001
0.78564757 -0.71634281 2.4280002
0.7909829 -0.71545768 2.4250002
0.79498756 -0.7133925 2.4180002
0.80061263 -0.71280235 2.4160001
0.80589342 -0.71191728 2.4130001
0.81115854 -0.71103215 2.4100001
0.81640804 -0.71014702 2.4070001
0.82300919 -0.71044213 2.4080002
0.82892668 -0.71014702 2.4070001
0.83275706 -0.70808184 2.4000001
0.83829898 -0.70749176 2.398
0.84347838 -0.70660669 2.3950002
0.84864205 -0.70572156 2.3920002
0.85379022 -0.70483649 2.3890002
0.85928273 -0.7042464 2.3870001
0.86440217 -0.70336127 2.3840001
0.86950612 -0.70247614 2.381
0.87569779 -0.70247614 2.381
0.88263023 -0.70306623 2.3830001
0.88882715 -0.70306623 2.3830001
0.89615083 -0.70395136 2.3860002
0.9038682 -0.70513147 2.3900001
0.91351038 -0.7077868 2.3990002
0.92089903 -0.70867193 2.4020002
0.92791724 -0.70926195 2.404
0.93650031 -0.71103215 2.4100001
0.94354975 -0.71162224 2.4120002
0.95100343 -0.71250737 2.4150002
0.9580763 -0.71309739 2.4170001
0.9647606 -0.7133925 2.4180002
0.96663094 -0.71014702 2.4070001
0.97289026 -0.71014702 2.4070001
0.97914946 -0.71014702 2.4070001
0.98499942 -0.70985204 2.4060001
0.99125612 -0.70985204 2.4060001
0.99709821 -0.709557 2.4050002
1.0029351 -0.70926195 2.404
1.0087668 -0.70896691 2.4030001
1.0150156 -0.70896691 2.4030001
1.0255145 -0.71191728 2.4130001
1.032217 -0.71221226 2.414
1.0389247 -0.71250737 2.4150002
1.03828 -0.7077868 2.3990002
1.0493078 -0.71103215 2.4100001
1.0560129 -0.7113272 2.411
1.0627233 -0.71162224 2.4120002
1.0694387 -0.71191728 2.4130001
1.0757136 -0.71191728 2.4130001
1.0819885 -0.71191728 2.4130001
1.0878124 -0.71162224 2.4120002
1.093631 -0.7113272 2.411
1.0989884 -0.71073717 2.4090002
1.1043352 -0.71014702 2.4070001
1.1101332 -0.70985204 2.4060001
1.1154618 -0.70926195 2.404
1.1207801 -0.70867193 2.4020002
1.1270264 -0.70867193 2.4020002
1.1328008 -0.70837682 2.401
1.1414165 -0.70985204 2.4060001
1.1476732 -0.70985204 2.4060001
1.1582464 -0.71250737 2.4150002
1.1664553 -0.71368748 2.4190001
1.1717762 -0.71309739 2.4170001
-0.89936316 -0.47578952 1.6270001
-0.89568239 -0.47608194 1.628
-0.89199638 -0.47637439 1.6290001
-0.88830531 -0.47666684 1.6300001
-0.88406658 -0.47666684 1.6300001
-0.88036752 -0.47695926 1.631
-0.87612623 -0.47695926 1.631
-0.87241954 -0.47725168 1.6320001
-0.86817551 -0.47725168 1.6320001
-0.8639316 -0.47725168 1.6320001
-0.8591609 -0.47695926 1.631
-0.85491949 -0.47695926 1.631
-0.85067821 -0.47695926 1.631
-0.84643692 -0.47695926 1.631
-0.84219551 -0.47695926 1.631
-0.83744049 -0.47666684 1.6300001
-0.8326906 -0.47637439 1.6290001
-0.82845438 -0.47637439 1.6290001
-0.82371229 -0.47608194 1.628
-0.81947881 -0.47608194 1.628
-0.81474447 -0.47578952 1.6270001
-0.8095172 -0.47520468 1.6250001
-0.80628258 -0.47578952 1.6270001
-0.80155873 -0.47549707 1.626
-0.79291713 -0.47286519 1.6170001
-0.78676111 -0.47169545 1.613
-0.78111118 -0.47081816 1.6100001
-0.77547669 -0.46994087 1.6070001
-0.76937789 -0.4687711 1.603
-0.77046037 -0.47198787 1.6140001
-0.7657885 -0.47169545 1.613
-0.761594 -0.47169545 1.613
-0.75739944 -0.47169545 1.613
-0.75320488 -0.47169545 1.613
-0.74947476 -0.47198787 1.6140001
-0.74527764 -0.47198787 1.6140001
-0.74108046 -0.47198787 1.6140001
-0.73733997 -0.47228032 1.6150001
-0.73314023 -0.47228032 1.6150001
-0.72894049 -0.47228032 1.6150001
-0.71980447 -0.46906355 1.6040001
-0.71697176 -0.46994087 1.6070001
-0.71367991 -0.47052571 1.6090001
-0.71258253 -0.47257274 1.6160001
-0.70838016 -0.47257274 1.6160001
-0.70461357 -0.47286519 1.6170001
-0.70084178 -0.47315761 1.618
-0.69663429 -0.47315761 1.618
-0.68729132 -0.46964842 1.6060001
-0.68226433 -0.46906355 1.6040001
-0.67809319 -0.46906355 1.6040001
-0.67350185 -0.4687711 1.603
-0.6693334 -0.4687711 1.603
-0.66474992 -0.46847868 1.6020001
-0.66058403 -0.46847868 1.6020001
-0.65641809 -0.46847868 1.6020001
-0.65184498 -0.46818626 1.6010001
-0.64727712 -0.46789381 1.6
-0.64311641 -0.46789381 1.6
-0.63855636 -0.46760139 1.5990001
-0.63400149 -0.46730894 1.598
-0.62945181 -0.46701652 1.5970001
-0.6288228 -0.46964842 1.6060001
-0.62386858 -0.46906355 1.6040001
-0.61815208 -0.46789381 1.6
-0.61245638 -0.46672407 1.5960001
-0.60716265 -0.46584678 1.5930001
-0.60264158 -0.46555436 1.5920001
-0.59774971 -0.46496946 1.59
-0.59286839 -0.46438462 1.5880001
-0.58762658 -0.46350729 1.585
-0.58276856 -0.46292242 1.5830001
-0.57828653 -0.46263 1.582
-0.57380968 -0.46233758 1.5810001
-0.56933808 -0.46204513 1.58
-0.56522936 -0.46204513 1.58
-0.56112063 -0.46204513 1.58
-0.55736446 -0.46233758 1.5810001
-0.55430299 -0.46321487 1.5840001
-0.55087852 -0.46379974 1.5860001
-0.54813313 -0.46496946 1.59
-0.54605126 -0.46672407 1.5960001
-0.54359859 -0.46818626 1.6010001
-0.54145694 -0.46994087 1.6070001
-0.53894967 -0.47140303 1.6120001
-0.53641641 -0.47286519 1.6170001
-0.53385723 -0.47432736 1.6220001
-0.53094536 -0.47549707 1.626
-0.5276888 -0.47637439 1.6290001
-0.52409536 -0.47695926 1.631
-0.52017277 -0.47725168 1.6320001
-0.5159288 -0.47725168 1.6320001
-0.51137137 -0.47695926 1.631
-0.50681913 -0.47666684 1.6300001
-0.50227207 -0.47637439 1.6290001
-0.49742445 -0.47578952 1.6270001
-0.49289036 -0.47549707 1.626
-0.48806101 -0.47491223 1.6240001
-0.48324201 -0.47432736 1.6220001
-0.47991005 -0.47520468 1.6250001
-0.47509888 -0.47461978 1.623
-0.47029808 -0.47403491 1.6210001
-0.46579522 -0.47374249 1.6200001
-0.46101263 -0.47315761 1.618
-0.45624045 -0.47257274 1.6160001
-0.44868138 -0.46906355 1.6040001
-0.44561878 -0.47023326 1.608
-0.44171178 -0.47052571 1.6090001
-0.4394311 -0.47257274 1.6160001
-0.43549815 -0.47286519 1.6170001
-0.43129319 -0.47286519 1.6170001
-0.42735237 -0.47315761 1.618
-0.42288336 -0.47286519 1.6170001
-0.41841948 -0.47257274 1.6160001
-0.41370454 -0.47198787 1.6140001
-0.40874621 -0.47111058 1.6110001
-0.40355241 -0.46994087 1.6070001
-0.39862794 -0.46906355 1.6040001
-0.39298126 -0.46730894 1.598
-0.38736585 -0.46555436 1.5920001
-0.38178158 -0.46379974 1.5860001
-0.37646669 -0.46233758 1.5810001
-0.37141329 -0.46116781 1.577
-0.36638069 -0.4599981 1.5730001
-0.36159924 -0.45912081 1.5700001
-0.35728884 -0.45882839 1.5690001
-0.35253337 -0.45795107 1.5660001
-0.34846106 -0.45795107 1.5660001
-0.34438875 -0.45795107 1.5660001
-0.34009913 -0.45765862 1.5650001
-0.33624414 -0.45795107 1.5660001
-0.33217183 -0.45795107 1.5660001
-0.32830903 -0.45824349 1.567
-0.32423413 -0.45824349 1.567
-0.32036355 -0.45853594 1.5680001
-0.31648776 -0.45882839 1.5690001
-0.31280586 -0.45941323 1.5710001
-0.30931011 -0.46029055 1.5740001
-0.30560482 -0.46087542 1.5760001
-0.30208045 -0.46175271 1.5790001
-0.29835173 -0.46233758 1.5810001
-0.29498485 -0.46350729 1.585
-0.29104668 -0.46379974 1.5860001
-0.28710327 -0.4640922 1.5870001
-0.28297636 -0.4640922 1.5870001
-0.27955225 -0.46526191 1.5910001
-0.27541494 -0.46526191 1.5910001
-0.27110711 -0.46496946 1.59
-0.26663658 -0.46438462 1.5880001
-0.26118463 -0.46204513 1.58
-0.25691319 -0.46175271 1.5790001
-0.25280708 -0.46175271 1.5790001
-0.249331 -0.46292242 1.5830001
-0.24521448 -0.46292242 1.5830001
-0.24125028 -0.46321487 1.5840001
-0.23728086 -0.46350729 1.585
-0.23315912 -0.46350729 1.585
-0.22918193 -0.46379974 1.5860001
-0.22534142 -0.46438462 1.5880001
-0.22121191 -0.46438462 1.5880001
-0.21735579 -0.46496946 1.59
-0.21322107 -0.46496946 1.59
-0.20908636 -0.46496946 1.59
-0.20495163 -0.46496946 1.59
-0.20069063 -0.46467707 1.5890001
-0.19655851 -0.46467707 1.5890001
-0.19254749 -0.46496946 1.59
-0.18829428 -0.46467707 1.5890001
-0.18393038 -0.4640922 1.5870001
-0.17957684 -0.46350729 1.585
-0.17534444 -0.46321487 1.5840001
-0.17154962 -0.4640922 1.5870001
-0.1673172 -0.46379974 1.5860001
-0.16308999 -0.46350729 1.585
-0.15896827 -0.46350729 1.585
-0.15474887 -0.46321487 1.5840001
-0.15062976 -0.46321487 1.5840001
-0.14651065 -0.46321487 1.5840001
-0.14230163 -0.46292242 1.5830001
-0.13792324 -0.46204513 1.58
-0.13381451 -0.46204513 1.58
-0.12970582 -0.46204513 1.58
-0.12567659 -0.46233758 1.5810001
-0.12164217 -0.46263 1.582
-0.11752825 -0.46263 1.582
-0.11341434 -0.46263 1.582
-0.10936952 -0.46292242 1.5830001
-0.105253 -0.46292242 1.5830001
-0.1011365 -0.46292242 1.5830001
-0.096958689 -0.46263 1.582
-0.092786089 -0.46233758 1.5810001
-0.088899128 -0.46350729 1.585
-0.084349513 -0.46116781 1.577
-0.080553927 -0.46292242 1.5830001
-0.076195978 -0.46146026 1.5780001
-0.07218384 -0.46204513 1.58
-0.067988954 -0.46146026 1.5780001
-0.063642532 -0.45970565 1.572
-0.059516739 -0.45941323 1.5710001
-0.055360865 -0.45882839 1.5690001
-0.051248074 -0.45853594 1.5680001
-0.047110401 -0.45795107 1.5660001
-0.043010611 -0.45765862 1.5650001
-0.03889114 -0.45707378 1.5630001
-0.034871198 -0.45765862 1.5650001
-0.030762129 -0.45707378 1.5630001
-0.026663464 -0.45648891 1.5610001
-0.022589678 -0.45619646 1.5600001
-0.018437933 -0.453857 1.552
-0.014383475 -0.45327213 1.5500001
-0.010339417 -0.45268726 1.5480001
-0.0063628643 -0.45619646 1.5600001
-0.0023061605 -0.45619646 1.5600001
0.001751665 -0.45648891 1.5610001
0.005810969 -0.45648891 1.5610001
0.0098829195 -0.45707378 1.5630001
0.013956347 -0.45736623 1.5640001
0.0180465 -0.45795107 1.5660001
0.022147056 -0.45853594 1.5680001
0.02625801 -0.45912081 1.5700001
0.030379372 -0.45970565 1.572
0.034533057 -0.46058297 1.575
0.038702343 -0.46146026 1.5780001
0.042887237 -0.46233758 1.5810001
0.047058005 -0.46292242 1.5830001
0.05123917 -0.46350729 1.585
0.055500604 -0.46467707 1.5890001
0.059707776 -0.46526191 1.5910001
0.063965477 -0.46613923 1.5940001
0.068196051 -0.46672407 1.5960001
0.072391704 -0.46701652 1.5970001
0.076544628 -0.46701652 1.5970001
0.080697551 -0.46701652 1.5970001
0.084797338 -0.46672407 1.5960001
0.088836193 -0.46613923 1.5940001
0.092806309 -0.46526191 1.5910001
0.096760832 -0.46438462 1.5880001
0.10063622 -0.46321487 1.5840001
0.10449079 -0.46204513 1.58
0.10832457 -0.46087542 1.5760001
0.11213755 -0.45970565 1.572
0.11600365 -0.45882839 1.5690001
0.11977762 -0.45765862 1.5650001
0.12360992 -0.45678133 1.562
0.12742661 -0.45590401 1.559
0.13122772 -0.45502675 1.5560001
0.13405688 -0.45093265 1.5420001
0.13797726 -0.45064023 1.5410001
0.14189242 -0.45034781 1.5400001
0.14589711 -0.45034781 1.5400001
0.15048584 -0.45210242 1.5460001
0.15370661 -0.44976294 1.5380001
0.15760356 -0.44947049 1.5370001
0.16160046 -0.44947049 1.5370001
0.1654896 -0.44917804 1.536
0.16937357 -0.44888562 1.5350001
0.1732523 -0.44859317 1.534
0.17701033 -0.44800833 1.5320001
0.18241192 -0.45151752 1.544
0.18630628 -0.4512251 1.5430001
0.19031878 -0.4512251 1.5430001
0.19433126 -0.4512251 1.5430001
0.19834375 -0.4512251 1.5430001
0.20222512 -0.45093265 1.5420001
0.20623501 -0.45093265 1.5420001
0.21024489 -0.45093265 1.5420001
0.21411587 -0.45064023 1.5410001
0.21656615 -0.44742346 1.5300001
0.22083311 -0.44800833 1.5320001
0.22511052 -0.44859317 1.534
0.22954763 -0.44947049 1.5370001
0.23384842 -0.45005536 1.539
0.23800506 -0.45034781 1.5400001
0.24232407 -0.45093265 1.5420001
0.24633396 -0.45093265 1.5420001
0.25050619 -0.4512251 1.5430001
0.25451872 -0.4512251 1.5430001
0.25869873 -0.45151752 1.544
0.26271382 -0.45151752 1.544
0.26672894 -0.45151752 1.544
0.27074403 -0.45151752 1.544
0.27458119 -0.4512251 1.5430001
0.27841312 -0.45093265 1.5420001
0.28242302 -0.45093265 1.5420001
0.28624716 -0.45064023 1.5410001
0.29006609 -0.45034781 1.5400001
0.29387984 -0.45005536 1.539
0.29788193 -0.45005536 1.539
0.30168787 -0.44976294 1.5380001
0.30548862 -0.44947049 1.5370001
0.30928415 -0.44917804 1.536
0.31327844 -0.44917804 1.536
0.31851205 -0.45093265 1.5420001
0.32252198 -0.45093265 1.5420001
0.32632011 -0.45064023 1.5410001
0.32925558 -0.44917804 1.536
0.33346686 -0.44947049 1.5370001
0.33746377 -0.44947049 1.5370001
0.34146065 -0.44947049 1.5370001
0.34568232 -0.44976294 1.5380001
0.34990916 -0.45005536 1.539
0.35414121 -0.45034781 1.5400001
0.35861102 -0.45093265 1.5420001
0.36285609 -0.4512251 1.5430001
0.36734411 -0.45180997 1.5450001
0.37208289 -0.45268726 1.5480001
0.37610841 -0.45268726 1.5480001
0.38087061 -0.45356458 1.5510001
0.38564837 -0.45444185 1.554
0.39069253 -0.45561162 1.5580001
0.39550415 -0.45648891 1.5610001
0.40007541 -0.45707378 1.5630001
0.40465701 -0.45765862 1.5650001
0.42178512 -0.47228032 1.6150001
0.61456072 -0.66177726 2.263
0.66239351 -0.70651966 2.4160001
0.66950649 -0.70739698 2.4190001
0.67607629 -0.7076894 2.4200001
0.68349731 -0.70885909 2.424
0.69065452 -0.70973641 2.427
0.69782728 -0.71061373 2.4300001
0.70501572 -0.71149105 2.4330001
0.71163499 -0.71178341 2.434
0.71825951 -0.71207589 2.4350002
0.72429401 -0.71178341 2.434
0.73062354 -0.71178341 2.434
0.73695296 -0.71178341 2.434
0.7432825 -0.71178341 2.434
0.74961203 -0.71178341 2.434
0.75594145 -0.71178341 2.434
0.76227099 -0.71178341 2.434
0.76860052 -0.71178341 2.434
0.77461159 -0.71149105 2.4330001
0.78093851 -0.71149105 2.4330001
0.7862947 -0.71061373 2.4300001
0.79163522 -0.70973641 2.427
0.79696018 -0.70885909 2.424
0.80061263 -0.70651966 2.4160001
0.80622739 -0.70593476 2.414
0.81149513 -0.70505744 2.411
0.81708646 -0.70447266 2.4090002
0.82335097 -0.70447266 2.4090002
0.82927114 -0.70418024 2.4080002
0.83345103 -0.7024256 2.4020002
0.83899814 -0.7018407 2.4000001
0.84418273 -0.70096338 2.3970001
0.84970641 -0.7003786 2.3950002
0.85772139 -0.7018407 2.4000001
0.86324251 -0.7012558 2.398
0.86548996 -0.69803905 2.3870001
0.87388837 -0.6997937 2.3930001
0.88047904 -0.70008612 2.3940001
0.88707495 -0.7003786 2.3950002
0.89367598 -0.70067102 2.3960001
0.90065783 -0.7012558 2.398
0.90500277 -0.6997937 2.3930001
0.912368 -0.70067102 2.3960001
0.92204916 -0.70330292 2.4050002
0.92907524 -0.70388776 2.4070001
0.93766606 -0.70564234 2.4130001
0.94472331 -0.70622724 2.4150002
0.95179099 -0.70681208 2.4170001
0.9588691 -0.70739698 2.4190001
0.96555853 -0.7076894 2.4200001
0.97185165 -0.7076894 2.4200001
0.97369868 -0.70447266 2.4090002
0.97996312 -0.70447266 2.4090002
0.98581827 -0.70418024 2.4080002
0.99208015 -0.70418024 2.4080002
0.99792737 -0.70388776 2.4070001
1.0037695 -0.70359534 2.4060001
1.0100262 -0.70359534 2.4060001
1.0162828 -0.70359534 2.4060001
1.0272144 -0.70681208 2.4170001
1.0334998 -0.70681208 2.4170001
1.0402153 -0.70710456 2.4180002
1.0387129 -0.7018407 2.4000001
1.0497432 -0.70505744 2.411
1.054261 -0.70388776 2.4070001
1.0600797 -0.70359534 2.4060001
1.0650067 -0.70271802 2.4030001
1.070364 -0.70213312 2.401
1.0810916 -0.70505744 2.411
1.0814983 -0.7012558 2.398
1.0922703 -0.70418024 2.4080002
1.098076 -0.70388776 2.4070001
1.1034176 -0.70330292 2.4050002
1.1092103 -0.70301044 2.404
1.1149979 -0.70271802 2.4030001
1.1207801 -0.7024256 2.4020002
1.1274955 -0.70271802 2.4030001
1.1337445 -0.70271802 2.4030001
1.1418909 -0.70388776 2.4070001
1.1491042 -0.70447266 2.4090002
1.158726 -0.70651966 2.4160001
1.1674197 -0.70798177 2.421
1.174685 -0.70856667 2.4230001
-0.90046871 -0.47213823 1.6290001
-0.8962326 -0.47213823 1.6290001
-0.89309156 -0.47271788 1.631
-0.88885021 -0.47271788 1.631
-0.88515133 -0.47300774 1.6320001
-0.8809073 -0.47300774 1.6320001
-0.8772006 -0.4732976 1.6330001
-0.87295413 -0.4732976 1.6330001
-0.86870754 -0.4732976 1.6330001
-0.8639316 -0.47300774 1.6320001
-0.8591609 -0.47271788 1.631
-0.85491949 -0.47271788 1.631
-0.85067821 -0.47271788 1.631
-0.845918 -0.47242808 1.6300001
-0.84167916 -0.47242808 1.6300001
-0.83744049 -0.47242808 1.6300001
-0.83320177 -0.47242808 1.6300001
-0.82845438 -0.47213823 1.6290001
-0.82421827 -0.47213823 1.6290001
-0.81998217 -0.47213823 1.6290001
-0.81524515 -0.4718484 1.628
-0.81051356 -0.47155857 1.6270001
-0.80529147 -0.47097892 1.6250001
-0.79810798 -0.46923992 1.6190001
-0.79291713 -0.46866024 1.6170001
-0.78676111 -0.4675009 1.613
-0.78111118 -0.46663141 1.6100001
-0.78175002 -0.46952975 1.6200001
-0.77705729 -0.46923992 1.6190001
-0.7723698 -0.46895006 1.618
-0.76816225 -0.46895006 1.618
-0.76395476 -0.46895006 1.618
-0.75974721 -0.46895006 1.618
-0.75553966 -0.46895006 1.618
-0.75133216 -0.46895006 1.618
-0.74712461 -0.46895006 1.618
-0.74291706 -0.46895006 1.618
-0.73916614 -0.46923992 1.6190001
-0.73495603 -0.46923992 1.6190001
-0.73029447 -0.46895006 1.618
-0.7211507 -0.46576193 1.6070001
-0.7178641 -0.46634158 1.6090001
-0.71767193 -0.46895006 1.618
-0.71258253 -0.46837041 1.6160001
-0.70881855 -0.46866024 1.6170001
-0.70461357 -0.46866024 1.6170001
-0.70084178 -0.46895006 1.618
-0.69706482 -0.46923992 1.6190001
-0.69328266 -0.46952975 1.6200001
-0.68396568 -0.46605173 1.608
-0.67978418 -0.46605173 1.608
-0.67518252 -0.46576193 1.6070001
-0.67142111 -0.46605173 1.608
-0.6668247 -0.46576193 1.6070001
-0.66264576 -0.46576193 1.6070001
-0.65846682 -0.46576193 1.6070001
-0.65388072 -0.46547207 1.6060001
-0.64929986 -0.46518221 1.605
-0.64472419 -0.46489242 1.6040001
-0.64015371 -0.46460256 1.603
-0.63558847 -0.46431276 1.6020001
-0.63063425 -0.46373305 1.6
-0.62999743 -0.46634158 1.6090001
-0.62464648 -0.46547207 1.6060001
-0.6189248 -0.46431276 1.6020001
-0.61322385 -0.46315339 1.598
-0.60792488 -0.46228391 1.595
-0.60339868 -0.46199408 1.5940001
-0.5981257 -0.46112457 1.5910001
-0.59324169 -0.46054491 1.5890001
-0.58836812 -0.45996526 1.5870001
-0.58350486 -0.45938557 1.585
-0.57901764 -0.45909575 1.5840001
-0.57453555 -0.45880592 1.5830001
-0.57005876 -0.45851606 1.582
-0.56594479 -0.45851606 1.582
-0.562186 -0.45880592 1.5830001
-0.55806953 -0.45880592 1.5830001
-0.55500287 -0.4596754 1.5860001
-0.55157316 -0.46025509 1.5880001
-0.54882264 -0.46141443 1.5920001
-0.54639339 -0.46286359 1.5970001
-0.54393816 -0.46431276 1.6020001
-0.54145694 -0.46576193 1.6070001
-0.53928399 -0.4675009 1.613
-0.53674811 -0.46895006 1.618
-0.5341863 -0.47039923 1.623
-0.53127193 -0.47155857 1.6270001
-0.52801275 -0.47242808 1.6300001
-0.52602339 -0.47445691 1.6370001
-0.52208519 -0.47474676 1.6380001
-0.51814175 -0.47503656 1.6390001
-0.51387966 -0.47503656 1.6390001
-0.50930655 -0.47474676 1.6380001
-0.50443035 -0.47416705 1.636
-0.49864736 -0.47271788 1.631
-0.49349663 -0.4718484 1.628
-0.48896262 -0.47155857 1.6270001
-0.48413581 -0.47097892 1.6250001
-0.47931936 -0.47039923 1.623
-0.47568434 -0.47097892 1.6250001
-0.47087833 -0.47039923 1.623
-0.46637025 -0.4701094 1.6220001
-0.46158251 -0.46952975 1.6200001
-0.45341718 -0.46547207 1.6060001
-0.44980028 -0.46605173 1.608
-0.44811293 -0.46866024 1.6170001
-0.44390801 -0.46866024 1.6170001
-0.43970305 -0.46866024 1.6170001
-0.43576744 -0.46895006 1.618
-0.43182665 -0.46923992 1.6190001
-0.42761651 -0.46923992 1.6190001
-0.42314488 -0.46895006 1.618
-0.4186784 -0.46866024 1.6170001
-0.4147298 -0.46895006 1.618
-0.40950739 -0.46779075 1.6140001
-0.40455687 -0.46692124 1.6110001
-0.3993735 -0.46576193 1.6070001
-0.39396498 -0.46431276 1.6020001
-0.38590592 -0.4596754 1.5860001
-0.38033727 -0.45793641 1.58
-0.37503797 -0.45648724 1.575
-0.37211984 -0.45793641 1.58
-0.36707947 -0.4567771 1.5760001
-0.36252052 -0.45619744 1.5740001
-0.35797197 -0.45561773 1.572
-0.35343382 -0.45503807 1.5700001
-0.3491286 -0.45474827 1.5690001
-0.34504852 -0.45474827 1.5690001
-0.34075108 -0.45445842 1.5680001
-0.33688828 -0.45474827 1.5690001
-0.33259606 -0.45445842 1.5680001
-0.32872808 -0.45474827 1.5690001
-0.32464796 -0.45474827 1.5690001
-0.32077217 -0.45503807 1.5700001
-0.31689119 -0.45532793 1.5710001
-0.31320408 -0.45590758 1.5730001
-0.30970311 -0.4567771 1.5760001
-0.30599263 -0.45735675 1.5780001
-0.30265436 -0.45851606 1.582
-0.29910657 -0.45938557 1.585
-0.29554319 -0.46025509 1.5880001
-0.29196423 -0.46112457 1.5910001
-0.2881887 -0.46170422 1.5930001
-0.28422451 -0.46199408 1.5940001
-0.28007939 -0.46199408 1.5940001
-0.27593425 -0.46199408 1.5940001
-0.27161863 -0.46170422 1.5930001
-0.26730824 -0.46141443 1.5920001
-0.26300299 -0.46112457 1.5910001
-0.25870296 -0.46083474 1.59
-0.25440815 -0.46054491 1.5890001
-0.25027603 -0.46054491 1.5890001
-0.24614391 -0.46054491 1.5890001
-0.24216409 -0.46083474 1.59
-0.23802938 -0.46083474 1.59
-0.23389465 -0.46083474 1.59
-0.22990444 -0.46112457 1.5910001
-0.22590904 -0.46141443 1.5920001
-0.22190842 -0.46170422 1.5930001
-0.2177659 -0.46170422 1.5930001
-0.21375749 -0.46199408 1.5940001
-0.20934938 -0.46141443 1.5920001
-0.20520945 -0.46141443 1.5920001
-0.20106953 -0.46141443 1.5920001
-0.19680591 -0.46112457 1.5910001
-0.19254749 -0.46083474 1.59
-0.18841277 -0.46083474 1.59
-0.18404627 -0.46025509 1.5880001
-0.17980346 -0.45996526 1.5870001
-0.17545512 -0.45938557 1.585
-0.17122534 -0.45909575 1.5840001
-0.16700071 -0.45880592 1.5830001
-0.1627813 -0.45851606 1.582
-0.15906857 -0.4596754 1.5860001
-0.15484655 -0.45938557 1.585
-0.15034448 -0.45822626 1.5810001
-0.14623316 -0.45822626 1.5810001
-0.14212185 -0.45822626 1.5810001
-0.13809782 -0.45851606 1.582
-0.13398391 -0.45851606 1.582
-0.13003419 -0.45909575 1.5840001
-0.12591507 -0.45909575 1.5840001
-0.12179596 -0.45909575 1.5840001
-0.11775113 -0.45938557 1.585
-0.11370111 -0.4596754 1.5860001
-0.10957679 -0.4596754 1.5860001
-0.10545248 -0.4596754 1.5860001
-0.10132816 -0.4596754 1.5860001
-0.097142555 -0.45938557 1.585
-0.092962161 -0.45909575 1.5840001
-0.088730864 -0.45851606 1.582
-0.084563464 -0.45822626 1.5810001
-0.080757476 -0.45996526 1.5870001
-0.076533981 -0.45938557 1.585
-0.072366588 -0.45909575 1.5840001
-0.068204388 -0.45880592 1.5830001
-0.063844956 -0.45706689 1.577
-0.059706163 -0.4567771 1.5760001
-0.055537287 -0.45619744 1.5740001
-0.051411491 -0.45590758 1.5730001
-0.047260817 -0.45532793 1.5710001
-0.043202989 -0.45561773 1.572
-0.039065313 -0.45503807 1.5700001
-0.034960326 -0.45474827 1.5690001
-0.030840853 -0.45416856 1.567
-0.026731785 -0.4535889 1.5650001
-0.022647601 -0.45329911 1.5640001
-0.018485455 -0.45098042 1.5560001
-0.014420593 -0.45040074 1.554
-0.010366134 -0.44982108 1.552
-0.0063179978 -0.44895157 1.549
-0.0023061605 -0.45213974 1.5600001
0.001751665 -0.45242959 1.5610001
0.005810969 -0.45242959 1.5610001
0.0098765958 -0.45271939 1.562
0.013947424 -0.45300925 1.5630001
0.018034976 -0.4535889 1.5650001
0.022132931 -0.45416856 1.567
0.026241288 -0.45474827 1.5690001
0.030379372 -0.45561773 1.572
0.034533057 -0.45648724 1.575
0.038702343 -0.45735675 1.5780001
0.042887237 -0.45822626 1.5810001
0.047058005 -0.45880592 1.5830001
0.051271498 -0.4596754 1.5860001
0.055535529 -0.46083474 1.59
0.059782833 -0.46170422 1.5930001
0.064045735 -0.46257374 1.5960001
0.068324246 -0.46344325 1.5990001
0.072527692 -0.46373305 1.6
0.076688416 -0.46373305 1.6
0.080899671 -0.4640229 1.6010001
0.085009858 -0.46373305 1.6
0.089059114 -0.46315339 1.598
0.093039639 -0.46228391 1.595
0.096943632 -0.46112457 1.5910001
0.10082682 -0.45996526 1.5870001
0.10468919 -0.45880592 1.5830001
0.10853078 -0.45764658 1.5790001
0.11235155 -0.45648724 1.575
0.11615152 -0.45532793 1.5710001
0.11993068 -0.45416856 1.567
0.12368906 -0.45300925 1.5630001
0.12750834 -0.45213974 1.5600001
0.13131204 -0.45127025 1.557
0.13405688 -0.44692275 1.5420001
0.13860402 -0.44866174 1.5480001
0.14253737 -0.44837192 1.5470001
0.14580236 -0.44605324 1.539
0.14980446 -0.44605324 1.539
0.15370661 -0.44576344 1.5380001
0.15760356 -0.44547358 1.5370001
0.16149531 -0.44518372 1.536
0.16538186 -0.44489393 1.5350001
0.16937357 -0.44489393 1.5350001
0.17313938 -0.44431427 1.5330001
0.17689477 -0.44373456 1.531
0.18075794 -0.44344476 1.5300001
0.18606479 -0.44663292 1.5410001
0.19007209 -0.44663292 1.5410001
0.19407938 -0.44663292 1.5410001
0.19795811 -0.44634309 1.5400001
0.20183168 -0.44605324 1.539
