# .PCD v0.7 - Point Cloud Data file format
VERSION 0.7
FIELDS x y z
SIZE 4 4 4
TYPE F F F
COUNT 1 1 1
WIDTH 1532
HEIGHT 1
VIEWPOINT 0 0 0 1 0 0 0
POINTS 1532
DATA ascii
-0.78270352 0.30533484 2.3230002
-0.77532524 0.30480903 2.319
-0.76763612 0.30415186 2.3140001
-0.49032208 0.20386325 1.5510001
-0.48472115 0.20320605 1.5460001
-0.48038989 0.2030746 1.5450001
-0.47668058 0.20320605 1.5460001
-0.47296596 0.20333748 1.5470001
-0.4695493 0.20360035 1.549
-0.46612233 0.20386325 1.5510001
-0.46268487 0.20412612 1.5530001
-0.45894164 0.20425755 1.554
-0.45548606 0.20452045 1.5560001
-0.45201999 0.20478332 1.5580001
-0.44883105 0.20517765 1.5610001
-0.4447718 0.20517765 1.5610001
-0.44297108 0.20622917 1.5690001
-0.43973011 0.20662346 1.572
-0.43647364 0.20701779 1.575
-0.43347603 0.20754357 1.5790001
-0.43045759 0.20806931 1.5830001
-0.42741841 0.20859508 1.5870001
-0.4246251 0.20925228 1.5920001
-0.42154166 0.20977804 1.5960001
-0.41843745 0.21030378 1.6
-0.4140178 0.21017236 1.5990001
-0.41062868 0.21056668 1.6020001
-0.40722388 0.21096098 1.605
-0.4038035 0.21135531 1.608
-0.40011907 0.2116182 1.6100001
-0.39667007 0.2120125 1.613
-0.39320552 0.21240683 1.6160001
-0.38972536 0.21280116 1.6190001
-0.38622957 0.21319547 1.6220001
-0.38318926 0.21385267 1.6270001
-0.37965706 0.21424699 1.6300001
-0.37633958 0.21477275 1.6340001
-0.37209046 0.21477275 1.6340001
-0.37324414 0.21792731 1.6580001
-0.37850079 0.22357923 1.7010001
-0.38463342 0.22988833 1.7490001
-0.39377612 0.23816904 1.812
-0.4017323 0.245924 1.8710001
-0.40683627 0.25210166 1.9180001
-0.41085771 0.25775358 1.9610001
-0.41320711 0.26248541 1.9970001
-0.41986421 0.27010894 2.0550001
-0.42137849 0.27457789 2.089
-0.41634437 0.27484077 2.0910001
-0.41188943 0.27549797 2.0960002
-0.40740845 0.27615517 2.1010001
-0.40290147 0.27681237 2.1060002
-0.39836845 0.27746958 2.1110001
-0.39380947 0.27812678 2.1160002
-0.38885745 0.27852109 2.1190002
-0.38298523 0.2782582 2.1170001
-0.38336429 0.28259572 2.1500001
-0.37759763 0.2824643 2.1490002
-0.37148991 0.28206998 2.1460001
-0.36573887 0.28193855 2.1450002
-0.35948923 0.28141275 2.141
-0.35292983 0.28062412 2.135
-0.34607622 0.27957261 2.1270001
-0.33926424 0.27852109 2.1190002
-0.33249384 0.27746958 2.1110001
-0.32638463 0.2769438 2.1070001
-0.32014397 0.2762866 2.102
-0.31437844 0.27602375 2.1000001
-0.30877039 0.27589232 2.0990002
-0.30331203 0.27589232 2.0990002
-0.29785371 0.27589232 2.0990002
-0.29267395 0.27615517 2.1010001
-0.28748381 0.27641806 2.1030002
-0.28241736 0.27681237 2.1060002
-0.27746683 0.27733812 2.1100001
-0.27262434 0.27799532 2.115
-0.26762962 0.27852109 2.1190002
-0.26273772 0.27917829 2.1240001
-0.25769877 0.27970403 2.128
-0.25394249 0.28167564 2.1430001
-0.24755846 0.28075558 2.1360002
-0.24223047 0.28101844 2.138
-0.23678142 0.28114989 2.1390002
-0.23121905 0.28114989 2.1390002
-0.22555117 0.28101844 2.138
-0.21978565 0.28075558 2.1360002
-0.21393019 0.28036124 2.1330001
-0.20799264 0.27983549 2.1290002
-0.2024563 0.27983549 2.1290002
-0.19636495 0.27904686 2.1230001
-0.19012505 0.27799532 2.115
-0.18392675 0.2769438 2.1070001
-0.17734659 0.27523509 2.0940001
-0.17099825 0.27378926 2.0830002
-0.1635942 0.27050325 2.0580001
-0.15770423 0.26958317 2.0510001
-0.15237071 0.26958317 2.0510001
-0.14538829 0.26656005 2.0280001
-0.1394237 0.26524568 2.0180001
-0.13357757 0.2640627 2.0090001
-0.12618104 0.25959376 1.9750001
-0.11847102 0.25407326 1.9330001
-0.1076929 0.24119216 1.835
-0.068518437 0.18651317 1.419
-0.064599968 0.18585597 1.414
-0.060707502 0.18519877 1.409
-0.05700298 0.18506734 1.4080001
-0.053000584 0.18388438 1.399
-0.049256701 0.18349005 1.396
-0.045561105 0.18322718 1.3940001
-0.041845825 0.18283285 1.391
-0.03820112 0.18270142 1.3900001
-0.034561608 0.18256998 1.3890001
-0.030949581 0.18256998 1.3890001
-0.027357236 0.18270142 1.3900001
-0.023776772 0.1829643 1.3920001
-0.020214865 0.18349005 1.396
-0.016632156 0.18401583 1.4000001
-0.013037925 0.18467303 1.4050001
-0.0094444035 0.18585597 1.414
-0.0059427517 0.19150789 1.457
-0.0021878958 0.19453101 1.48
0.014875467 0.21911027 1.6670001
0.020305194 0.23159705 1.7620001
0.025593407 0.23816904 1.812
0.030338876 0.23843193 1.8140001
0.035152722 0.23908913 1.8190001
0.040014494 0.23987776 1.825
0.044784844 0.2400092 1.8260001
0.04999442 0.24224368 1.8430001
0.054935686 0.24290088 1.848
0.059482697 0.24184935 1.84
0.064372316 0.24224368 1.8430001
0.069052361 0.24184935 1.84
0.074318737 0.24342665 1.8520001
0.07913477 0.24342665 1.8520001
0.083542831 0.24224368 1.8430001
0.088191681 0.24184935 1.84
0.09302704 0.24198081 1.8410001
0.097283155 0.2406664 1.8310001
0.10171019 0.23987776 1.825
0.10633935 0.23961489 1.8230001
0.11107998 0.23961489 1.8230001
0.11588413 0.23974633 1.8240001
0.12075961 0.2400092 1.8260001
0.1256455 0.24027207 1.8280001
0.13061315 0.2406664 1.8310001
0.13581817 0.24145505 1.8370001
0.14097787 0.24211225 1.8420001
0.14592619 0.24237512 1.8440001
0.1511301 0.24303232 1.8490001
0.15585399 0.24290088 1.848
0.16257223 0.24579257 1.8700001
0.16779323 0.24631831 1.8740001
0.17257434 0.24618688 1.8730001
0.17801341 0.24697551 1.8790001
0.18348369 0.24776416 1.8850001
0.18878528 0.24828991 1.8890001
0.19421025 0.24894711 1.8940001
0.19955607 0.24947289 1.8980001
0.2052459 0.25039294 1.9050001
0.2110825 0.25144449 1.9130001
0.21662186 0.25210166 1.9180001
0.22195616 0.252496 1.9210001
0.22718792 0.25275886 1.9230001
0.23243006 0.25302175 1.9250001
0.23780596 0.25341606 1.9280001
0.24332339 0.25394183 1.932
0.25040415 0.25604486 1.9480001
0.25560102 0.25617632 1.9490001
0.26107052 0.25657064 1.9520001
0.26737368 0.25775358 1.9610001
0.27622473 0.26130244 1.988
0.28252679 0.26235399 1.9960001
0.29031196 0.2647199 2.0140002
0.29584277 0.26498276 2.016
0.30153331 0.2653771 2.0190001
0.30875894 0.26708582 2.0320001
0.31512487 0.26800588 2.039
0.32089865 0.26840022 2.0420001
0.32684776 0.26892596 2.046
0.33249301 0.26918885 2.0480001
0.3389734 0.27010894 2.0550001
0.34498751 0.27063468 2.059
0.35085228 0.271029 2.062
0.3567327 0.27142334 2.0650001
0.36245334 0.27168623 2.0670002
0.36658278 0.27076614 2.0600002
0.3723008 0.271029 2.062
0.37839556 0.27155477 2.066
0.38674015 0.2736578 2.082
0.39271933 0.27405211 2.085
0.39756843 0.2736578 2.082
0.41401526 0.28114989 2.1390002
0.43487775 0.29140219 2.217
0.4625062 0.30586058 2.3270001
0.56679451 0.36067101 2.7440002
0.60634971 0.38104418 2.8990002
0.64480513 0.4002344 3.0450001
0.6589399 0.40404615 3.0740001
0.6673677 0.40430906 3.0760002
0.67800134 0.40588632 3.0880001
0.68914181 0.4077265 3.1020002
0.69563508 0.40680638 3.095
0.71118641 0.41114393 3.1280003
0.72001046 0.41153821 3.131
0.72908276 0.41206402 3.1350002
0.73888129 0.41298407 3.1420002
0.74776518 0.41337842 3.1450002
0.75570321 0.41324693 3.1440001
0.7731117 0.41824168 3.1820002
0.78187752 0.41850457 3.1840003
0.79040545 0.41863599 3.1850002
0.79893863 0.41876742 3.1860001
0.80291647 0.41653296 3.1690001
0.81013352 0.41600719 3.1650002
0.81810528 0.41587573 3.164
0.82998949 0.41771591 3.1780002
0.8353523 0.41627005 3.1670001
0.8433215 0.41613862 3.1660001
0.85128564 0.41600719 3.1650002
0.85924447 0.41587573 3.164
0.86500478 0.41469279 3.1550002
0.87320918 0.41469279 3.1550002
0.88336915 0.41561288 3.1620002
0.89159179 0.41561288 3.1620002
0.90038359 0.41587573 3.164
0.90918571 0.41613862 3.1660001
0.91828811 0.41653296 3.1690001
0.92740607 0.41692728 3.1720002
0.93948931 0.41863599 3.1850002
0.94539112 0.41758445 3.177
0.9536528 0.41758445 3.177
0.9613089 0.41732159 3.1750002
0.96895456 0.41705871 3.1730001
0.97597396 0.41653296 3.1690001
0.9814195 0.41534999 3.1600001
0.98744476 0.4144299 3.1530001
0.99217045 0.41298407 3.1420002
0.99906754 0.41245833 3.1380002
1.0072278 0.41245833 3.1380002
1.0140936 0.41193256 3.1340001
1.0108272 0.40733218 3.0990002
1.0155983 0.40601778 3.0890002
1.0229682 0.40575489 3.0870001
1.0193065 0.40115446 3.052
1.0262334 0.40076017 3.0490003
1.0331446 0.40036586 3.0460002
1.0407238 0.4002344 3.0450001
1.0496753 0.40062872 3.0480001
1.0576015 0.40062872 3.0480001
1.0658773 0.40076017 3.0490003
1.0741583 0.4008916 3.0500002
1.0827991 0.40115446 3.052
1.097526 0.40365183 3.0710001
1.1033521 0.4028632 3.0650001
1.1109599 0.40273178 3.0640001
1.1196581 0.40299466 3.0660002
1.1250566 0.40207458 3.0590003
1.1330113 0.40207458 3.0590003
1.1540207 0.40667495 3.0940001
1.162442 0.40680638 3.095
1.1708686 0.40693784 3.0960002
1.1937704 0.41206402 3.1350002
1.2007725 0.41166967 3.1320002
1.2077593 0.41127536 3.1290002
1.2267765 0.41495568 3.1570001
1.2353773 0.41508713 3.1580002
1.2439834 0.41521856 3.1590002
1.2521982 0.41521856 3.1590002
1.2628069 0.41600719 3.1650002
1.2702342 0.4157443 3.1630001
1.2728008 0.41390416 3.1490002
1.2805828 0.41377273 3.1480002
1.2879502 0.41350985 3.1460001
1.2953073 0.41324693 3.1440001
1.2972641 0.41127536 3.1290002
1.3024806 0.4103553 3.1220002
1.3093399 0.40996096 3.1190002
1.3161834 0.40956664 3.1160002
1.3234364 0.40930375 3.1140001
1.3255479 0.40746361 3.1000001
1.3344697 0.4077265 3.1020002
1.3442675 0.40825224 3.1060002
1.3536507 0.40864655 3.1090002
1.3634875 0.40917233 3.1130002
1.3729045 0.40956664 3.1160002
1.4036106 0.41627005 3.1670001
1.4105088 0.41587573 3.164
1.4209787 0.41653296 3.1690001
1.4314746 0.41719016 3.1740003
1.4419963 0.41784734 3.1790001
1.4507194 0.41797876 3.1800001
1.4585299 0.41784734 3.1790001
1.465874 0.41758445 3.177
1.4736717 0.41745302 3.1760001
1.4693323 0.41390416 3.1490002
1.4775213 0.41390416 3.1490002
1.4842947 0.41350985 3.1460001
1.4915268 0.41324693 3.1440001
1.4987487 0.41298407 3.1420002
1.4882147 0.40785792 3.1030002
1.4958017 0.4077265 3.1020002
1.5058075 0.40825224 3.1060002
1.5138844 0.40825224 3.1060002
1.5219615 0.40825224 3.1060002
1.5265903 0.40733218 3.0990002
1.5361347 0.4077265 3.1020002
-1.2131089 0.29837373 2.2260001
-1.2084051 0.29864183 2.2280002
-1.203151 0.29877585 2.2290001
-1.1973547 0.29877585 2.2290001
-1.1910237 0.29864183 2.2280002
-1.1846977 0.29850778 2.227
-1.177848 0.29823971 2.2250001
-1.1725887 0.29837373 2.2260001
-1.1668 0.29837373 2.2260001
-1.1437997 0.29395041 2.1930001
-1.137578 0.29381639 2.1920002
-1.1184522 0.29033133 2.1660001
-1.1087095 0.28925899 2.158
-1.0841845 0.28429949 2.1210001
-1.0771432 0.28389737 2.118
-1.0685997 0.28309312 2.112
-1.0600874 0.28228891 2.1060002
-1.0541101 0.28215486 2.105
-1.0496324 0.28242296 2.1070001
-1.0391977 0.28108254 2.0970001
-1.0337446 0.28108254 2.0970001
-1.0297625 0.28148466 2.1000001
-1.0257648 0.28188679 2.1030002
-1.0222367 0.28242296 2.1070001
-1.0191703 0.28309312 2.112
-1.016078 0.28376335 2.1170001
-1.0129597 0.28443357 2.1220002
-1.0098153 0.28510377 2.1270001
-1.0071172 0.28590801 2.1330001
-1.0095528 0.28818667 2.1500001
-1.0053627 0.28858879 2.1530001
-1.0011572 0.28899091 2.1560001
-0.99693584 0.28939307 2.1590002
-0.99269891 0.28979519 2.1620002
-0.98844647 0.29019731 2.1650002
-0.9850862 0.29086748 2.1700001
-0.97854054 0.29059944 2.1680002
-0.97424895 0.29100153 2.171
-0.9708342 0.29167172 2.1760001
-0.96961117 0.29301214 2.1860001
-0.96569037 0.29354829 2.1900001
-0.95955706 0.29341426 2.1890001
-0.96388698 0.2964972 2.2120001
-0.96073377 0.29730144 2.2180002
-0.96013254 0.2989099 2.23
-0.95690119 0.29971415 2.2360001
-0.95278805 0.30025029 2.24
-0.94907683 0.30092052 2.2450001
-0.94491935 0.30145666 2.2490001
-0.94032365 0.30185878 2.2520001
-0.93446738 0.30185878 2.2520001
-0.93397176 0.30360132 2.2650001
-0.9297207 0.30413747 2.2690001
-0.92585605 0.30480769 2.2740002
-0.92156082 0.30534384 2.2780001
-0.91724473 0.30588001 2.2820001
-0.9129079 0.30641615 2.286
-0.90775681 0.30668426 2.2880001
-0.90338355 0.3072204 2.2920001
-0.89898944 0.30775654 2.296
-0.89418566 0.30815867 2.299
-0.88975269 0.30869487 2.3030002
-0.88529879 0.30923101 2.3070002
-0.88120526 0.30990121 2.312
-0.87670726 0.31043738 2.3160002
-0.87294012 0.3112416 2.322
-0.86839539 0.3117778 2.3260002
-0.86382967 0.31231394 2.3300002
-0.85887504 0.31271607 2.3330002
-0.85317373 0.31285009 2.3340001
-0.84783018 0.31311819 2.3360002
-0.84247619 0.31338626 2.3380001
-0.83711183 0.31365433 2.3400002
-0.83067161 0.31352031 2.3390002
-0.82458925 0.31352031 2.3390002
-0.81780684 0.31325221 2.3370001
-0.81103486 0.31298414 2.335
-0.80392861 0.31258202 2.332
-0.79718012 0.31231394 2.3300002
-0.79010242 0.31191182 2.3270001
-0.7830404 0.3115097 2.3240001
-0.77599394 0.31110758 2.3210001
-0.48810911 0.20695825 1.544
-0.4844076 0.20709229 1.5450001
-0.48038989 0.20709229 1.5450001
-0.47668058 0.20722634 1.5460001
-0.47266024 0.20722634 1.5460001
-0.46924618 0.20749441 1.5480001
-0.46552125 0.20762844 1.549
-0.462089 0.20789655 1.5510001
-0.45835099 0.20803057 1.552
-0.45519331 0.20843269 1.5550001
-0.45143974 0.20856674 1.5560001
-0.44796848 0.20883481 1.5580001
-0.44420192 0.20896885 1.559
-0.44071248 0.20923693 1.5610001
-0.43889096 0.21030927 1.5690001
-0.43564224 0.21071137 1.572
-0.43265244 0.21124755 1.5760001
-0.42964178 0.21178369 1.58
-0.42661044 0.21231987 1.5840001
-0.42355818 0.21285602 1.5880001
-0.41916454 0.21272199 1.5870001
-0.41634527 0.2133922 1.5920001
-0.41324103 0.21392834 1.5960001
-0.40985972 0.21433046 1.5990001
-0.40646273 0.21473259 1.6020001
-0.40305015 0.2151347 1.605
-0.39962199 0.21553683 1.608
-0.39617825 0.21593896 1.6110001
-0.39247555 0.21620703 1.613
-0.3892439 0.2167432 1.6170001
-0.38622957 0.2174134 1.6220001
-0.38271824 0.21781552 1.6250001
-0.37942412 0.21835168 1.6290001
-0.37587896 0.2187538 1.6320001
-0.37163505 0.2187538 1.6320001
-0.37279391 0.22197077 1.6560001
-0.37672067 0.22693026 1.6930001
-0.38441348 0.23430246 1.748
-0.39421076 0.24314915 1.8140001
-0.40194702 0.25092348 1.8720001
-0.40726048 0.25735742 1.9200001
-0.41127673 0.26312113 1.9630001
-0.41382784 0.26808062 2
-0.4208858 0.27612308 2.0600002
-0.42178196 0.2802783 2.0910001
-0.41674262 0.2805464 2.0930002
-0.41228244 0.28121659 2.098
-0.40779626 0.28188679 2.1030002
-0.40328407 0.28255698 2.108
-0.39874586 0.28322721 2.1130002
-0.39436781 0.28403145 2.1190002
-0.38940799 0.28443357 2.1220002
-0.3893171 0.28845477 2.1520002
-0.38407752 0.28872284 2.154
-0.37812477 0.28845477 2.1520002
-0.37218234 0.28818667 2.1500001
-0.36625034 0.2879186 2.148
-0.35999298 0.28738242 2.1440001
-0.35359108 0.28671226 2.1390002
-0.34688976 0.28577396 2.1320002
-0.34038499 0.28496972 2.1260002
-0.33359638 0.28389737 2.118
-0.32715914 0.28309312 2.112
-0.32060087 0.28215486 2.105
-0.31482756 0.28188679 2.1030002
-0.30921167 0.28175274 2.102
-0.30374551 0.28175274 2.102
-0.29827937 0.28175274 2.102
-0.29309186 0.28202084 2.1040001
-0.28789389 0.28228891 2.1060002
-0.28281966 0.28269103 2.1090002
-0.27786133 0.28322721 2.1130002
-0.27288213 0.28376335 2.1170001
-0.26800853 0.28443357 2.1220002
-0.26298514 0.28496972 2.1260002
-0.25806206 0.28563991 2.131
-0.25299451 0.28617606 2.135
-0.24790616 0.28671226 2.1390002
-0.24257037 0.2869803 2.141
-0.23722419 0.2872484 2.1430001
-0.23165144 0.2872484 2.1430001
-0.22597317 0.28711438 2.1420002
-0.22019722 0.28684628 2.1400001
-0.21433136 0.28644416 2.1370001
-0.20838341 0.28590801 2.1330001
-0.20236118 0.28523779 2.128
-0.19673494 0.28510377 2.1270001
-0.19039473 0.28389737 2.118
-0.18392675 0.28242296 2.1070001
-0.17751598 0.28094852 2.0960002
-0.17124452 0.27960813 2.0860002
-0.16375318 0.27612308 2.0600002
-0.15878071 0.27679324 2.0650001
-0.15237071 0.27491671 2.0510001
-0.14596181 0.27290606 2.036
-0.13983823 0.2712976 2.0240002
-0.13105096 0.26419348 1.9710001
-0.1229227 0.25789359 1.9240001
-0.11418081 0.2497171 1.863
-0.072361134 0.19060533 1.4220001
-0.068373576 0.18980108 1.416
-0.064371541 0.1888628 1.409
-0.060578246 0.18846068 1.406
-0.056719583 0.18779048 1.401
-0.052886929 0.18712027 1.396
-0.049186133 0.1868522 1.3940001
-0.045463055 0.18645008 1.391
-0.041785661 0.18618201 1.3890001
-0.038118668 0.18591392 1.3870001
-0.034511842 0.18591392 1.3870001
-0.030905018 0.18591392 1.3870001
-0.02731787 0.18604796 1.388
-0.023759689 0.18645008 1.391
-0.020200385 0.18698625 1.3950001
-0.016620276 0.1875224 1.399
-0.013028644 0.18819261 1.404
-0.009437724 0.18939897 1.4130001
-0.0059019644 0.19395633 1.447
-0.0022056357 0.19998816 1.4920001
0.0017258557 0.20615402 1.5380001
0.010255979 0.2174134 1.6220001
0.014893314 0.22371328 1.669
0.019971 0.23229186 1.733
0.025183802 0.23899388 1.7830001
0.029887304 0.23953004 1.7870001
0.034862842 0.24180874 1.8040001
0.039663684 0.24247894 1.8090001
0.044441473 0.24288104 1.812
0.049262002 0.24341722 1.8160001
0.054103326 0.24395338 1.8200001
0.05906244 0.24489167 1.8270001
0.064232603 0.24650015 1.8390001
0.06935259 0.2477065 1.848
0.074238479 0.24797459 1.8500001
0.079049312 0.24797459 1.8500001
0.083769485 0.2477065 1.848
0.088191681 0.24663417 1.84
0.09317863 0.24717034 1.8440001
0.097017504 0.24475762 1.8260001
0.1013758 0.24381934 1.8190001
0.10598935 0.24355125 1.817
0.11071438 0.24355125 1.817
0.11556647 0.24381934 1.8190001
0.12036281 0.24395338 1.8200001
0.12523311 0.24422146 1.8220001
0.13018513 0.24462357 1.825
0.13552243 0.2456959 1.8330001
0.14067173 0.2463661 1.8380001
0.14568877 0.24676822 1.8410001
0.15096661 0.24757247 1.8470001
0.15619133 0.24824268 1.8520001
0.15900782 0.24515975 1.8290001
0.16403265 0.24556187 1.8320001
0.16934951 0.2463661 1.8380001
0.17460282 0.24703629 1.8430001
0.17959014 0.24730438 1.845
0.18868536 0.25306812 1.8880001
0.19390263 0.25347024 1.891
0.19924065 0.25400642 1.8950001
0.20492268 0.25494468 1.9020001
0.21086182 0.25615105 1.9110001
0.21639597 0.25682124 1.9160001
0.22172508 0.25722337 1.9190001
0.22695163 0.25749144 1.9210001
0.23218857 0.25775954 1.9230001
0.23755927 0.25816166 1.9260001
0.2430715 0.25869781 1.9300001
0.25014707 0.26084247 1.9460001
0.25533873 0.26097649 1.9470001
0.26093677 0.26151267 1.9510001
0.26641929 0.26191479 1.9540001
0.27650264 0.26674023 1.9900001
0.28238526 0.26741043 1.9950001
0.29074439 0.27035934 2.0170002
0.29628301 0.27062741 2.0190001
0.30183202 0.27089548 2.0210001
0.31027842 0.27371031 2.0420001
0.31574306 0.27384436 2.043
0.32152724 0.27424648 2.046
0.32764652 0.27491671 2.0510001
0.33298004 0.27491671 2.0510001
0.33996311 0.2762571 2.0610001
0.3459928 0.27679324 2.0650001
0.35187319 0.27719536 2.0680001
0.35759646 0.27746347 2.0700002
0.36333007 0.27773154 2.072
0.36747253 0.27679324 2.0650001
0.37320358 0.27706134 2.0670002
0.37931135 0.27759749 2.0710001
0.38748321 0.27960813 2.0860002
0.39347276 0.28001019 2.089
0.3983323 0.27960813 2.0860002
0.4142088 0.28684628 2.1400001
0.44174322 0.30185878 2.2520001
0.46986017 0.31687132 2.3640001
0.53579587 0.35212392 2.6270001
0.57443714 0.37276614 2.7810001
0.61513436 0.39421257 2.9410002
0.652852 0.4132463 3.0830002
0.65936863 0.41230804 3.0760002
0.6673677 0.41230804 3.0760002
0.68370992 0.41740155 3.1140001
0.69158554 0.4172675 3.1130002
0.70102936 0.41807175 3.1190002
0.71368736 0.42075256 3.1390002
0.72001046 0.41968021 3.131
0.72908276 0.42021641 3.1350002
0.73841095 0.42088658 3.1400001
0.74728966 0.42128873 3.1430001
0.75546288 0.42128873 3.1430001
0.76436502 0.42169085 3.1460001
0.7730372 0.42195892 3.1480002
0.78147155 0.42209297 3.1490002
0.7904126 0.4224951 3.1520002
0.80164963 0.42410356 3.164
0.80859768 0.42343336 3.1590002
0.81681246 0.42343336 3.1590002
0.82398266 0.42289722 3.1550002
0.83376974 0.42370147 3.1610003
0.84145695 0.42343336 3.1590002
0.84967178 0.42343336 3.1590002
0.85761511 0.42329934 3.1580002
0.86445642 0.42262912 3.1530001
0.87265563 0.42262912 3.1530001
0.88197225 0.42316526 3.1570001
0.89046395 0.42329934 3.1580002
0.89924532 0.42356738 3.1600001
0.90832418 0.42396951 3.1630001
0.91741878 0.42437163 3.1660001
0.92682129 0.4249078 3.1700001
0.94007921 0.42718649 3.187
0.94806933 0.42705244 3.1860001
0.95635438 0.42705244 3.1860001
0.96221721 0.42598015 3.1780002
0.96987069 0.42571205 3.1760001
0.97658992 0.42504185 3.1710002
0.98235124 0.42396951 3.1630001
0.98901063 0.42329934 3.1580002
0.99659133 0.42303124 3.1560001
1.0038432 0.42262912 3.1530001
1.0072278 0.42061853 3.1380002
1.0108579 0.41874194 3.1240001
1.0219172 0.41994831 3.1330001
1.0280918 0.41914406 3.1270001
1.0226369 0.41364843 3.0860002
1.0303278 0.41351438 3.085
1.0376772 0.4132463 3.0830002
1.0446768 0.41284418 3.0800002
1.0520025 0.41257608 3.0780001
1.0596625 0.41244206 3.0770001
1.067317 0.41230804 3.0760002
1.0784622 0.41351438 3.085
1.0840193 0.41257608 3.0780001
1.0923783 0.41271016 3.0790002
1.0985981 0.41203994 3.0740001
1.106952 0.41217396 3.075
1.1120477 0.41110164 3.0670002
1.1207536 0.41136974 3.0690002
1.1353545 0.41378245 3.0870001
1.144123 0.41405055 3.0890002
1.1536477 0.41458669 3.0930002
1.162442 0.41485476 3.095
1.1708686 0.41498882 3.0960002
1.1796812 0.41525689 3.098
1.2000058 0.41954619 3.1300001
1.2073733 0.41927812 3.1280003
1.213953 0.41874194 3.1240001
1.2236416 0.41927812 3.1280003
1.2329571 0.41968021 3.131
1.2422884 0.42008233 3.1340001
1.2520342 0.42061853 3.1380002
1.2609975 0.42088658 3.1400001
1.2715882 0.42169085 3.1460001
1.2801759 0.42182487 3.1470001
1.2879502 0.42169085 3.1460001
1.2957193 0.4215568 3.1450002
1.2989225 0.41994831 3.1330001
1.3033149 0.41874194 3.1240001
1.3097596 0.4182058 3.1200001
1.3170282 0.4179377 3.118
1.3247114 0.41780367 3.1170001
1.3375207 0.41927812 3.1280003
1.3478057 0.41994831 3.1330001
1.3576841 0.42048445 3.1370001
1.3667126 0.42075256 3.1390002
1.3915193 0.42584607 3.177
1.4006622 0.42611417 3.1790001
1.4062698 0.42530993 3.1730001
1.4327989 0.43080559 3.2140002
1.4416051 0.43093961 3.2150002
1.4508675 0.43120772 3.2170002
1.4587796 0.43107367 3.2160001
1.4662303 0.43080559 3.2140002
1.4732116 0.43040347 3.2110002
1.4801775 0.43000135 3.2080002
1.4861997 0.42933112 3.2030001
1.4898629 0.42799073 3.1930001
1.4779904 0.422227 3.1500001
1.4847665 0.42182487 3.1470001
1.4924756 0.42169085 3.1460001
1.4992256 0.42128873 3.1430001
1.4906127 0.41659731 3.108
1.4977305 0.41632923 3.1060002
1.5062923 0.41646326 3.1070001
1.5143719 0.41646326 3.1070001
1.5219615 0.41632923 3.1060002
1.5280682 0.41579309 3.1020002
1.537125 0.41606113 3.1040001
-1.2141989 0.30443564 2.2280002
-1.2100322 0.30484554 2.2310002
-1.20531 0.30511883 2.233
-1.1995033 0.30511883 2.233
-1.1926274 0.30484554 2.2310002
-1.1857618 0.30457225 2.2290001
-1.1789066 0.30429897 2.227
-1.1731155 0.30429897 2.227
-1.1673242 0.30429897 2.227
-1.1443212 0.29978982 2.194
-1.137578 0.29951656 2.1920002
-1.1215504 0.29678375 2.1720002
-1.109737 0.29514405 2.1600001
-1.0846958 0.28995171 2.1220002
-1.0766346 0.28926849 2.1170001
-1.0685997 0.28858528 2.112
-1.0600874 0.28776547 2.1060002
-1.0546108 0.28776547 2.1060002
-1.0441527 0.28639907 2.0960002
-1.0387021 0.28639907 2.0960002
-1.0337446 0.28653568 2.0970001
-1.0297625 0.28694561 2.1000001
-1.0257648 0.28735554 2.1030002
-1.0222367 0.28790209 2.1070001
-1.0191703 0.28858528 2.112
-1.016078 0.28926849 2.1170001
-1.013437 0.29008836 2.1230001
-1.01029 0.29077154 2.128
-1.0075893 0.29159138 2.1340001
-1.0048573 0.29241124 2.1400001
-1.0067637 0.29459748 2.1560001
-1.0020858 0.29487076 2.158
-0.9978593 0.29528067 2.161
-0.99361718 0.2956906 2.164
-0.98981613 0.2962372 2.1680002
-0.98554009 0.29664707 2.171
-0.98260266 0.29746693 2.177
-0.97694153 0.29746693 2.177
-0.97351116 0.29815015 2.1820002
-0.971829 0.29937991 2.1910002
-0.96877706 0.30019975 2.197
-0.96963918 0.30224937 2.2120001
-0.96519423 0.3026593 2.2150002
-0.96160001 0.30334249 2.22
-0.96099365 0.30498219 2.2320001
-0.95732915 0.30566537 2.237
-0.95321345 0.30621195 2.2410002
-0.94865406 0.30662188 2.2440002
-0.94491935 0.30730507 2.2490001
-0.93823594 0.30703181 2.2470002
-0.93405247 0.30757836 2.2510002
-0.93314701 0.30921805 2.263
-0.92931098 0.30990127 2.2680001
-0.92504174 0.31044781 2.2720001
-0.92115635 0.31113103 2.2770002
-0.91684282 0.31167758 2.2810001
-0.91250855 0.31222415 2.2850001
-0.90775681 0.31263408 2.2880001
-0.90338355 0.31318063 2.2920001
-0.89898944 0.31372717 2.296
-0.8945747 0.31427377 2.3000002
-0.89013898 0.31482032 2.3040001
-0.88529879 0.31523025 2.3070002
-0.88120526 0.31591344 2.312
-0.87670726 0.31646001 2.3160002
-0.87256426 0.3171432 2.3210001
-0.86839539 0.31782642 2.3260002
-0.86382967 0.31837299 2.3300002
-0.85924315 0.31891954 2.3340001
-0.85390484 0.31919283 2.3360002
-0.84855598 0.31946608 2.3380001
-0.84283662 0.31960276 2.3390002
-0.83746952 0.31987602 2.3410001
-0.83102673 0.3197394 2.3400002
-0.82494175 0.3197394 2.3400002
-0.81815678 0.31946608 2.3380001
-0.81138223 0.31919283 2.3360002
-0.80427343 0.31878293 2.3330002
-0.79718012 0.31837299 2.3300002
-0.79010242 0.31796306 2.3270001
-0.78337729 0.31768978 2.325
-0.77733123 0.31768978 2.325
-0.49084932 0.21042678 1.5400001
-0.48842525 0.21110998 1.5450001
-0.4844076 0.21110998 1.5450001
-0.48070082 0.21124662 1.5460001
-0.47668058 0.21124662 1.5460001
-0.47266024 0.21124662 1.5460001
-0.46894306 0.21138325 1.5470001
-0.46552125 0.21165654 1.549
-0.46179107 0.21179318 1.5500001
-0.4580557 0.21192983 1.5510001
-0.45490059 0.21233974 1.554
-0.45085946 0.21233974 1.554
-0.44739342 0.21261303 1.5560001
-0.44363207 0.21274966 1.557
-0.44014779 0.21302295 1.559
-0.43693286 0.21343286 1.562
-0.43481088 0.21438937 1.5690001
-0.43182886 0.21493593 1.5730001
-0.428826 0.21548247 1.577
-0.42445582 0.21534584 1.5760001
-0.42169112 0.21602905 1.5810001
-0.41863626 0.21657561 1.585
-0.41529918 0.21698552 1.5880001
-0.41246426 0.21766873 1.5930001
-0.40909073 0.21807866 1.5960001
-0.40595528 0.21862522 1.6
-0.4025479 0.21903513 1.603
-0.39912495 0.21944506 1.6060001
-0.39568642 0.219855 1.6090001
-0.39223227 0.22026491 1.6120001
-0.38948461 0.22108474 1.618
-0.38599145 0.22149467 1.6210001
-0.38248268 0.22190461 1.6240001
-0.37895831 0.22231452 1.6270001
-0.37541834 0.22272445 1.6300001
-0.37163505 0.22299773 1.6320001
-0.37166828 0.22559389 1.651
-0.37916836 0.23283586 1.7040001
-0.3841936 0.23871142 1.7470001
-0.4017323 0.25565487 1.8710001
-0.40747261 0.2624869 1.9210001
-0.41148627 0.26836246 1.9640001
-0.41444859 0.27369145 2.003
-0.42170304 0.28202653 2.0640001
-0.42178196 0.28571585 2.0910001
-0.41674262 0.28598914 2.0930002
-0.41876733 0.29118145 2.131
-0.41419536 0.29186469 2.1360002
-0.40940604 0.29241124 2.1400001
-0.40459588 0.29295778 2.1440001
-0.39957887 0.29336771 2.1470001
-0.39454624 0.29377764 2.1500001
-0.38967887 0.29432419 2.154
-0.38443416 0.29459748 2.1560001
-0.3788276 0.29459748 2.1560001
-0.37287477 0.29432419 2.154
-0.36693242 0.29405093 2.1520002
-0.36066458 0.29350436 2.148
-0.35425231 0.29282117 2.1430001
-0.34754059 0.29186469 2.1360002
-0.34102538 0.29104483 2.1300001
-0.33469889 0.29036161 2.125
-0.32762387 0.28899521 2.115
-0.3210578 0.28803873 2.108
-0.31527668 0.28776547 2.1060002
-0.30965298 0.2876288 2.105
-0.30403453 0.28749216 2.1040001
-0.2987051 0.2876288 2.105
-0.29337049 0.28776547 2.1060002
-0.288304 0.28817537 2.1090002
-0.28308785 0.28844866 2.1110001
-0.2781243 0.28899521 2.115
-0.27313995 0.28954178 2.1190002
-0.2682611 0.29022497 2.1240001
-0.26323253 0.29077154 2.128
-0.2583043 0.29145476 2.1330001
-0.2532315 0.29200131 2.1370001
-0.24825385 0.29268453 2.1420002
-0.24291027 0.29295778 2.1440001
-0.23755629 0.2932311 2.1460001
-0.23197573 0.2932311 2.1460001
-0.22628967 0.29309446 2.1450002
-0.22050591 0.29282117 2.1430001
-0.21463226 0.29241124 2.1400001
-0.2086765 0.29186469 2.1360002
-0.20264646 0.29118145 2.131
-0.19682741 0.29077154 2.128
-0.19066441 0.28981504 2.1210001
-0.18392675 0.28790209 2.1070001
-0.17760067 0.28653568 2.0970001
-0.17132661 0.28516927 2.0870001
-0.16391216 0.28175324 2.062
-0.1589345 0.28243646 2.0670002
-0.15244499 0.28038684 2.052
-0.1461052 0.27847388 2.0380001
-0.14004551 0.27697083 2.0270002
-0.13091798 0.26904565 1.9690001
-0.071801379 0.1928001 1.411
-0.067987286 0.1923902 1.4080001
-0.064188793 0.19198027 1.4050001
-0.060448993 0.191707 1.4030001
-0.056598131 0.1910238 1.3980001
-0.052849047 0.19061387 1.3950001
-0.049115565 0.19020395 1.3920001
-0.045397688 0.18979402 1.3890001
-0.041725494 0.18952075 1.3870001
-0.038063705 0.18924746 1.3850001
-0.034437194 0.18911082 1.3840001
-0.030838171 0.18911082 1.3840001
-0.027278509 0.18938409 1.386
-0.023708446 0.18965738 1.388
-0.020156944 0.19020395 1.3920001
-0.016596517 0.19088715 1.3970001
-0.013028644 0.19184363 1.404
-0.009437724 0.19307341 1.4130001
-0.0059019644 0.19771919 1.447
-0.0022085924 0.2041413 1.4940001
0.0017269778 0.21029013 1.539
0.0058854208 0.21602905 1.5810001
0.010186425 0.22012827 1.6110001
0.014982549 0.22941986 1.6790001
0.020086238 0.23816484 1.743
0.024632949 0.23830149 1.7440001
0.029285209 0.23925798 1.751
0.033935227 0.23994118 1.756
0.038633171 0.24076103 1.7620001
0.043288745 0.24117096 1.7650001
0.049153492 0.24759306 1.812
0.053954691 0.24800298 1.8150001
0.058965459 0.24923275 1.8240001
0.063464187 0.24827626 1.817
0.068226732 0.24841291 1.8180001
0.072954357 0.24841291 1.8180001
0.077681974 0.24841291 1.8180001
0.082182944 0.2477297 1.8130001
0.087999962 0.25087243 1.8360001
0.091460586 0.24731977 1.8100001
0.096858107 0.24909611 1.8230001
0.10098568 0.24759306 1.812
0.10563937 0.24745643 1.8110001
0.11034879 0.24745643 1.8110001
0.11512173 0.24759306 1.812
0.11996602 0.24786635 1.8140001
0.1248207 0.24813963 1.8160001
0.12975714 0.24854955 1.8190001
0.13323045 0.24622665 1.802
0.13791646 0.24622665 1.802
0.14276077 0.24649994 1.8040001
0.14769717 0.24690986 1.807
0.15281788 0.24759306 1.812
0.15848619 0.24909611 1.8230001
0.16358498 0.24964269 1.8270001
0.16888882 0.2504625 1.8330001
0.17422387 0.25128236 1.8390001
0.17929813 0.2516923 1.8420001
0.18948488 0.2590709 1.8960001
0.19451787 0.25920752 1.8970001
0.1998715 0.25975409 1.9010001
0.2052459 0.26030067 1.9050001
0.21064113 0.26084721 1.909
0.21617009 0.2615304 1.914
0.22149397 0.26194033 1.9170001
0.22695163 0.2624869 1.9210001
0.23206782 0.26262355 1.9220001
0.23731259 0.26289684 1.9240001
0.24420501 0.26494646 1.9390001
0.25014707 0.26590294 1.9460001
0.25520757 0.26590294 1.9460001
0.26080301 0.26644948 1.95
0.26628292 0.26685941 1.9530001
0.27664158 0.27205175 1.9910001
0.28238526 0.27259833 1.9950001
0.29290658 0.27765402 2.0320001
0.29892448 0.27833724 2.0370002
0.30481896 0.27888381 2.0410001
0.31058231 0.27929372 2.0440001
0.31620672 0.279567 2.046
0.32215589 0.28011358 2.0500002
0.32828552 0.28079677 2.0550001
0.33557767 0.28243646 2.0670002
0.3406229 0.28216317 2.0650001
0.34649548 0.2825731 2.0680001
0.35238364 0.28298303 2.0710001
0.35828748 0.28339294 2.0740001
0.36403152 0.28366625 2.0760002
0.37103158 0.28489599 2.085
0.37699518 0.28530592 2.0880001
0.38315755 0.28585246 2.092
0.3885977 0.28585246 2.092
0.39422619 0.28598914 2.0930002
0.3989051 0.28544253 2.089
0.42040259 0.29678375 2.1720002
0.44664714 0.31113103 2.2770002
0.47721416 0.32807446 2.401
0.54273039 0.36360106 2.661
0.58249289 0.38532695 2.8200002
0.62412816 0.40773603 2.9840002
0.65348727 0.42167342 3.0860002
0.66494197 0.42385966 3.1020002
0.67409343 0.42454284 3.1070001
0.68327081 0.42522606 3.1120002
0.69158554 0.42536271 3.1130002
0.70080453 0.42604589 3.118
0.71368736 0.42891535 3.1390002
0.72024047 0.42795888 3.1320002
0.72908276 0.42836881 3.1350002
0.73817581 0.42891535 3.1390002
0.74681413 0.42918861 3.141
0.75498211 0.42918861 3.141
0.76363611 0.42946193 3.1430001
0.77205485 0.42959854 3.1440001
0.77998251 0.42946193 3.1430001
0.788908 0.42987186 3.1460001
0.80088961 0.43192148 3.1610003
0.80731785 0.43096495 3.154
0.8157782 0.43110162 3.1550002
0.82346028 0.43082833 3.1530001
0.83245087 0.43123823 3.1560001
0.84012508 0.43096495 3.154
0.84805799 0.43082833 3.1530001
0.8562572 0.43082833 3.1530001
0.86363387 0.4304184 3.1500001
0.87210214 0.43055508 3.1510003
0.88085479 0.43082833 3.1530001
0.88933599 0.43096495 3.154
0.89810705 0.43123823 3.1560001
0.90717554 0.43164816 3.1590002
0.91625971 0.4320581 3.1620002
0.92506707 0.43233135 3.164
0.93978423 0.43533745 3.1860001
0.94747424 0.4350642 3.1840003
0.9551537 0.43479091 3.1820002
0.96312553 0.4346543 3.1810002
0.97292441 0.43533745 3.1860001
0.97720581 0.43356115 3.1730001
0.98297244 0.43246803 3.1650002
0.98963696 0.43178481 3.1600001
0.9972229 0.43151155 3.1580002
1.0044799 0.43110162 3.1550002
1.0126843 0.43110162 3.1550002
1.0199181 0.43069169 3.1520002
1.0274622 0.4304184 3.1500001
1.0267767 0.42672911 3.1230001
1.0355606 0.4270024 3.1250002
1.0433531 0.42686573 3.1240001
1.0528233 0.42741233 3.1280003
1.060279 0.42713904 3.1260002
1.0697752 0.42768559 3.1300001
1.0775703 0.42754894 3.1290002
1.0811963 0.42577264 3.1160002
1.0882505 0.42536271 3.1130002
1.0959936 0.42522606 3.1120002
1.1033765 0.42495278 3.1100001
1.1107492 0.42467949 3.108
1.1177516 0.42426959 3.1050003
1.1247381 0.42385966 3.1020002
1.131344 0.42331308 3.098
1.1368257 0.42235661 3.0910001
1.1448636 0.42235661 3.0910001
1.1536477 0.42262989 3.0930002
1.1620665 0.42276651 3.0940001
1.1704904 0.42290315 3.095
1.1793004 0.42317644 3.0970001
1.1881207 0.42344972 3.0990002
1.1973375 0.42385966 3.1020002
1.2127873 0.4264558 3.1210001
1.2228593 0.42713904 3.1260002
1.2325634 0.42768559 3.1300001
1.2418921 0.42809552 3.1330001
1.2516352 0.42864206 3.1370001
1.260596 0.42891535 3.1390002
1.2707797 0.42959854 3.1440001
1.2801759 0.43000847 3.1470001
1.288769 0.43014514 3.1480002
1.2973672 0.43028176 3.1490002
1.3001662 0.42850545 3.1360002
1.3120761 0.42973521 3.1450002
1.321094 0.43000847 3.1470001
1.3301225 0.43028176 3.1490002
1.3391614 0.43055508 3.1510003
1.3486381 0.43096495 3.154
1.3585607 0.43151155 3.1580002
1.3689369 0.43219474 3.1630001
1.3793391 0.43287796 3.1680002
1.3910813 0.43397105 3.1760001
1.4006622 0.43438098 3.1790001
1.4075993 0.43397105 3.1760001
1.4336903 0.43943667 3.2160001
1.4425019 0.43957335 3.2170002
1.4517695 0.43984661 3.2190001
1.4596868 0.43970999 3.2180002
1.4671426 0.43943667 3.2160001
1.4741292 0.43902677 3.2130001
1.4811002 0.43861684 3.21
1.4875917 0.43807027 3.2060001
1.4879965 0.43574739 3.1890001
1.4925358 0.4346543 3.1810002
1.4989206 0.43410769 3.177
1.49295 0.43000847 3.1470001
1.4997027 0.42959854 3.1440001
1.4925312 0.42522606 3.1120002
1.4991771 0.42481613 3.1090002
1.506777 0.42467949 3.108
1.5090104 0.42303982 3.0960002
1.5160813 0.42276651 3.0940001
1.5285608 0.4239963 3.1030002
1.537125 0.42413291 3.1040001
-1.2327279 0.31496364 2.2620001
-1.2279305 0.31524214 2.2640002
-1.222043 0.31524214 2.2640002
-1.2161556 0.31524214 2.2640002
-1.2108028 0.31538138 2.2650001
-1.2043808 0.31524214 2.2640002
-1.1974345 0.31496364 2.2620001
-1.1904988 0.31468517 2.26
-1.1678485 0.31022945 2.2280002
-1.1594467 0.30953324 2.223
-1.137578 0.30521676 2.1920002
-1.1261976 0.3036851 2.181
-1.1102507 0.30090028 2.161
-1.0846958 0.29546991 2.1220002
-1.0771432 0.2949129 2.118
-1.0675879 0.29379898 2.1100001
-1.0600874 0.29324204 2.1060002
-1.0546108 0.29324204 2.1060002
-1.0441527 0.29184961 2.0960002
-1.0391977 0.29198885 2.0970001
-1.0342375 0.29212809 2.098
-1.0302528 0.2925458 2.1010001
-1.0262525 0.29296353 2.1040001
-1.0227219 0.29352048 2.108
-1.019653 0.29421672 2.1130002
-1.017038 0.29505217 2.1190002
-1.0143918 0.29588759 2.125
-1.0112396 0.2965838 2.1300001
-1.0085337 0.29741925 2.1360002
-1.0104921 0.29964712 2.1520002
-1.0072306 0.3003433 2.1570001
-1.0034789 0.30090028 2.161
-0.99878281 0.30117878 2.1630001
-0.99453551 0.30159649 2.1660001
-0.99072921 0.30215347 2.1700001
-0.986902 0.30271041 2.174
-0.98395675 0.30354586 2.1800001
-0.9814291 0.30452055 2.187
-0.97574186 0.30452055 2.187
-0.9758209 0.30633068 2.2
-0.97318661 0.30730537 2.207
-0.97270769 0.30897629 2.2190001
-0.96562999 0.30855855 2.2160001
-0.9650653 0.31022945 2.2280002
-0.96142417 0.31092563 2.233
-0.95775717 0.31162187 2.2380002
-0.95321345 0.31203958 2.2410002
-0.94865406 0.31245732 2.2440002
-0.94281864 0.31245732 2.2440002
-0.93823594 0.31287506 2.2470002
-0.93363744 0.31329274 2.25
-0.93232238 0.3148244 2.2610002
-0.92849147 0.31552061 2.266
-0.92463458 0.31621683 2.2710001
-0.92034721 0.31677377 2.2750001
-0.91603893 0.31733075 2.279
-0.91170985 0.31788769 2.283
-0.90736008 0.3184447 2.2870002
-0.90298939 0.31900164 2.2910001
-0.8985979 0.31955862 2.2950001
-0.89418566 0.32011557 2.299
-0.88975269 0.32067254 2.3030002
-0.88529879 0.32122952 2.3070002
-0.88044304 0.32164723 2.3100002
-0.87670726 0.32248271 2.3160002
-0.87256426 0.32317889 2.3210001
-0.86839539 0.3238751 2.3260002
-0.86382967 0.32443208 2.3300002
-0.85887504 0.32484978 2.3330002
-0.85390484 0.32526752 2.3360002
-0.84891897 0.32568523 2.3390002
-0.84319693 0.32582447 2.3400002
-0.83746952 0.32596371 2.3410001
-0.83102673 0.32582447 2.3400002
-0.82458925 0.32568523 2.3390002
-0.81850672 0.32568523 2.3390002
-0.81138223 0.32526752 2.3360002
-0.80427343 0.32484978 2.3330002
-0.79718012 0.32443208 2.3300002
-0.78942335 0.32373583 2.325
-0.78405124 0.32401434 2.3270001
-0.48810911 0.21498844 1.544
-0.48503464 0.21540618 1.5470001
-0.48038989 0.21512769 1.5450001
-0.47791389 0.2158239 1.5500001
-0.47388315 0.2158239 1.5500001
-0.4695493 0.21568465 1.549
-0.46552125 0.21568465 1.549
-0.46179107 0.2158239 1.5500001
-0.4580557 0.21596314 1.5510001
-0.45460787 0.21624163 1.5530001
-0.45027921 0.21610238 1.552
-0.44681835 0.21638085 1.554
-0.44306222 0.2165201 1.5550001
-0.43958315 0.21679859 1.557
-0.43609366 0.21707706 1.559
-0.43287098 0.21749479 1.562
-0.42990717 0.21805176 1.5660001
-0.42692256 0.21860872 1.5700001
-0.42364785 0.21902645 1.5730001
-0.42089096 0.21972266 1.5780001
-0.41784391 0.2202796 1.582
-0.41477612 0.22083658 1.5860001
-0.41168746 0.22139354 1.59
-0.4085781 0.22195052 1.5940001
-0.40544784 0.22250748 1.598
-0.40229681 0.22306445 1.6020001
-0.39887643 0.22348216 1.605
-0.39593235 0.22417837 1.6100001
-0.39247555 0.22459608 1.613
-0.3892439 0.22515306 1.6170001
-0.38575336 0.2255708 1.6200001
-0.38224715 0.22598851 1.623
-0.37895831 0.22654548 1.6270001
-0.37541834 0.22696321 1.6300001
-0.37186277 0.22738093 1.6330001
-0.37031761 0.22905181 1.6450001
-0.37894583 0.23712781 1.7030001
-0.38375375 0.24297595 1.7450001
-0.39225492 0.25133041 1.8050001
-0.40087342 0.25996336 1.8670001
-0.40747261 0.2674824 1.9210001
-0.41253382 0.27416599 1.9690001
-0.41486242 0.27917865 2.0050001
-0.42231598 0.28781161 2.0670002
-0.42964876 0.2965838 2.1300001
-0.42510533 0.29728001 2.135
-0.42053595 0.29797623 2.1400001
-0.41458315 0.29769772 2.138
-0.40978867 0.29825473 2.1420002
-0.40516204 0.29895091 2.1470001
-0.40013719 0.29936862 2.1500001
-0.39509678 0.29978636 2.1530001
-0.3902216 0.3003433 2.1570001
-0.38479075 0.30048254 2.158
-0.3795304 0.30076104 2.1600001
-0.37356719 0.30048254 2.158
-0.36761442 0.3002041 2.1560001
-0.36133626 0.29964712 2.1520002
-0.35507882 0.29909015 2.148
-0.3483541 0.29811546 2.141
-0.3418259 0.29728001 2.135
-0.3351714 0.29630533 2.128
-0.3279337 0.29477367 2.1170001
-0.32166702 0.29407746 2.112
-0.31572577 0.29365975 2.1090002
-0.3100943 0.29352048 2.108
-0.30446807 0.29338127 2.1070001
-0.2991308 0.29352048 2.108
-0.29378837 0.29365975 2.1090002
-0.28857741 0.29393822 2.1110001
-0.28335607 0.29421672 2.1130002
-0.27838734 0.29477367 2.1170001
-0.27352667 0.29546991 2.1220002
-0.26851371 0.29602686 2.1260002
-0.26360363 0.29672304 2.131
-0.25854647 0.29728001 2.135
-0.25346851 0.29783699 2.1390002
-0.24848564 0.29853317 2.1440001
-0.24325016 0.29895091 2.1470001
-0.23788838 0.29922941 2.1490002
-0.23230003 0.29922941 2.1490002
-0.22660613 0.29909015 2.148
-0.2208146 0.29881167 2.1460001
-0.21493314 0.29839393 2.1430001
-0.20896959 0.29783699 2.1390002
-0.20331213 0.29769772 2.138
-0.1971049 0.29672304 2.131
-0.19093409 0.29574835 2.1240001
-0.18392675 0.29338127 2.1070001
-0.17768535 0.29212809 2.098
-0.17132661 0.29059646 2.0870001
-0.16486607 0.28878629 2.0740001
-0.15839627 0.28683692 2.0600002
-0.1525193 0.28586224 2.0530002
-0.14632027 0.28419134 2.0410001
-0.14032187 0.28279895 2.0310001
-0.130785 0.27388749 1.9670001
-0.07573805 0.19716556 1.416
-0.071699604 0.19619088 1.409
-0.067890711 0.19577315 1.406
-0.064097427 0.19535545 1.4030001
-0.060319737 0.19493772 1.4000001
-0.056517158 0.19438075 1.396
-0.052773274 0.19396302 1.393
-0.049045 0.19354531 1.3900001
-0.04533232 0.19312759 1.3870001
-0.041665327 0.1928491 1.3850001
-0.038008735 0.19257061 1.383
-0.034387432 0.19243138 1.3820001
-0.030771326 0.19229212 1.381
-0.027219463 0.19257061 1.383
-0.023657205 0.1928491 1.3850001
-0.020113502 0.19340606 1.3890001
-0.016560875 0.19410227 1.3940001
-0.013037925 0.19563392 1.4050001
-0.0094444035 0.19688709 1.414
-0.0059101223 0.20176055 1.4490001
-0.0022115489 0.20830487 1.4960001
0.0017281 0.21443149 1.5400001
0.0058742529 0.21972266 1.5780001
0.010180103 0.22417837 1.6100001
0.014795156 0.23086196 1.6580001
0.019452423 0.23503919 1.6880001
0.024647076 0.24297595 1.7450001
0.029285209 0.24381138 1.751
0.033935227 0.24450758 1.756
0.038633171 0.24534304 1.7620001
0.043313269 0.24589999 1.766
0.048041299 0.2465962 1.771
0.052795336 0.24729243 1.7760001
0.057575375 0.24798863 1.7810001
0.062311564 0.24840634 1.784
0.068114147 0.25272283 1.8150001
0.072793841 0.25258359 1.8140001
0.077468328 0.25244433 1.8130001
0.08195629 0.25174814 1.8080001
0.086514123 0.25133041 1.8050001
0.091157407 0.25119117 1.8040001
0.096486188 0.25286207 1.8160001
0.10059556 0.25133041 1.8050001
0.10528937 0.25133041 1.8050001
0.10998319 0.25133041 1.8050001
0.114677 0.25133041 1.8050001
0.11950307 0.25160888 1.807
0.1244083 0.25202662 1.8100001
0.12925778 0.25230509 1.812
0.13300864 0.25049499 1.7990001
0.13768686 0.25049499 1.7990001
0.14252335 0.25077346 1.8010001
0.14745197 0.25119117 1.8040001
0.15256487 0.25188738 1.8090001
0.15796456 0.2530013 1.817
0.16313729 0.25369751 1.8220001
0.16842814 0.25453296 1.8280001
0.17384492 0.25550765 1.835
0.17900611 0.25606462 1.8390001
0.18378833 0.25606462 1.8390001
0.19308232 0.26219124 1.8830001
0.19829439 0.26260895 1.886
0.20503043 0.26497605 1.9030001
0.20777227 0.26219124 1.8830001
0.21289478 0.26246971 1.8850001
0.21814327 0.26288745 1.8880001
0.22328921 0.26316592 1.8900001
0.22868702 0.26372287 1.8940001
0.23521574 0.265533 1.9070001
0.24042667 0.2658115 1.909
0.24474822 0.26511529 1.904
0.25520757 0.27096343 1.9460001
0.26066929 0.27138114 1.9490001
0.2661466 0.27179888 1.9520001
0.27664158 0.27722928 1.9910001
0.28252679 0.27792549 1.9960001
0.29319489 0.28321666 2.0340002
0.29907119 0.28377363 2.0380001
0.3049683 0.28433058 2.0420001
0.3108862 0.28488752 2.046
0.31651583 0.28516603 2.0480001
0.32262734 0.28586224 2.0530002
0.32876477 0.28655845 2.0580001
0.33622706 0.28836858 2.0710001
0.3412827 0.28809008 2.069
0.34750077 0.28878629 2.0740001
0.35357472 0.28934327 2.0780001
0.361397 0.29129264 2.092
0.36718783 0.29157114 2.0940001
0.37174338 0.2908749 2.089
0.37753683 0.2911534 2.0910001
0.38389021 0.29184961 2.0960002
0.38952649 0.29198885 2.0970001
0.39497963 0.29198885 2.0970001
0.40654334 0.29644459 2.1290002
0.42640278 0.30674842 2.2030001
0.45331642 0.32178646 2.3110001
0.4847669 0.33960935 2.4390001
0.55231643 0.37706524 2.7080002
0.58786339 0.39628053 2.8460002
0.63019377 0.41953382 3.0130002
0.6594165 0.43359718 3.1140001
0.6655851 0.43234402 3.1050003
0.67452735 0.43290097 3.1090002
0.68349034 0.43345794 3.1130002
0.69136339 0.4333187 3.1120002
0.70080453 0.43415412 3.118
0.71368736 0.43707821 3.1390002
0.72208011 0.43721744 3.1400001
0.72931528 0.43666047 3.1360002
0.73794067 0.43693897 3.1380002
0.74633861 0.43707821 3.1390002
0.7545014 0.43707821 3.1390002
0.76266426 0.43707821 3.1390002
0.77058154 0.43693897 3.1380002
0.77750087 0.43624276 3.1330001
0.78640038 0.43666047 3.1360002
0.7953155 0.43707821 3.1390002
0.80603802 0.43847063 3.1490002
0.81474394 0.4387491 3.1510003
0.82293802 0.4387491 3.1510003
0.83192331 0.43916681 3.154
0.83959234 0.43888834 3.1520002
0.84752005 0.4387491 3.1510003
0.85544252 0.43860984 3.1500001
0.86308557 0.4383314 3.1480002
0.87154859 0.43847063 3.1490002
0.88029611 0.4387491 3.1510003
0.88877213 0.43888834 3.1520002
0.89753789 0.43916681 3.154
0.90660113 0.43958452 3.1570001
0.91539037 0.43986303 3.1590002
0.92418998 0.44014153 3.1610003
0.94066918 0.44404027 3.1890001
0.94806933 0.44362253 3.1860001
0.95725495 0.44404027 3.1890001
0.96373105 0.44320482 3.1830001
0.97261906 0.44348329 3.1850002
0.98582917 0.44571117 3.2010002
0.99291086 0.44515422 3.1970003
1.0009114 0.44501495 3.1960001
1.0092224 0.44501495 3.1960001
1.017215 0.44487572 3.1950002
1.0239185 0.44417951 3.1900001
1.0312433 0.44376177 3.187
1.0339859 0.44139469 3.1700001
1.0382841 0.43972379 3.1580002
1.0435138 0.43847063 3.1490002
1.0503666 0.43791366 3.1450002
1.0561891 0.43693897 3.1380002
1.0612966 0.43568581 3.1290002
1.0687498 0.43540731 3.1270001
1.0758483 0.43498957 3.1240001
1.0825841 0.43443263 3.1200001
1.0917463 0.43485034 3.1230001
1.0981066 0.43415412 3.118
1.1051506 0.43373644 3.1150002
1.111464 0.4330402 3.1100001
1.1181115 0.43248326 3.1060002
1.1251007 0.43206552 3.1030002
1.1317092 0.43150857 3.0990002
1.1375613 0.43067312 3.0930002
1.1452341 0.43053389 3.0920002
1.1532747 0.43053389 3.0920002
1.1613153 0.43053389 3.0920002
1.169734 0.43067312 3.0930002
1.1785388 0.43095157 3.095
1.1869706 0.43109083 3.0960002
1.1957935 0.4313693 3.098
1.2026839 0.43095157 3.095
1.2115147 0.43123007 3.0970001
1.220356 0.43150857 3.0990002
1.2292075 0.43178701 3.1010001
1.2376705 0.43192628 3.1020002
1.2601944 0.43693897 3.1380002
1.2703756 0.43763515 3.1430001
1.2805828 0.4383314 3.1480002
1.2899972 0.4387491 3.1510003
1.2994272 0.43916681 3.154
1.3121895 0.44069847 3.1650002
1.3220887 0.44125545 3.1690001
1.3320087 0.4418124 3.1730001
1.3415271 0.44223014 3.1760001
1.3506362 0.44250861 3.1780002
1.3636039 0.44404027 3.1890001
1.3740478 0.44473648 3.1940002
1.3853832 0.44571117 3.2010002
1.3954488 0.44626814 3.2050002
1.4050972 0.44668585 3.2080002
1.4152019 0.44724283 3.2120001
1.4248841 0.44766054 3.2150002
1.4341363 0.44793904 3.2170002
1.4429502 0.44807827 3.2180002
1.4522206 0.44835675 3.2200003
1.4601403 0.44821751 3.2190001
1.4675989 0.44793904 3.2170002
1.474588 0.4475213 3.2140002
1.4815618 0.44710359 3.2110002
1.4885198 0.44668585 3.2080002
1.4870633 0.44376177 3.187
1.4930049 0.44306558 3.1820002
1.4989206 0.44236937 3.177
1.49295 0.43819213 3.1470001
1.4997027 0.43777439 3.1440001
1.4910923 0.43290097 3.1090002
1.4986949 0.4327617 3.108
1.5062923 0.43262249 3.1070001
1.5114474 0.43178701 3.1010001
1.5185314 0.43150857 3.0990002
1.5275755 0.43178701 3.1010001
1.5351442 0.43164781 3.1000001
-1.2354529 0.32155508 2.2670002
-1.2311848 0.3219806 2.2700002
-1.2258214 0.32212245 2.2710001
-1.2199159 0.32212245 2.2710001
-1.2134757 0.3219806 2.2700002
-1.2065086 0.32169691 2.2680001
-1.1990228 0.32127139 2.2650001
-1.1920792 0.3209877 2.263
-1.1683725 0.31616509 2.2290001
-1.1594467 0.31531402 2.223
-1.1386158 0.31120062 2.194
-1.1246487 0.30893117 2.1780002
-1.1117921 0.30694535 2.164
-1.085207 0.30112988 2.1230001
-1.0776519 0.3005625 2.1190002
-1.0670819 0.29914409 2.1090002
-1.0605909 0.2988604 2.1070001
-1.0551116 0.2988604 2.1070001
-1.0446508 0.29744199 2.0970001
-1.0396932 0.29758382 2.098
-1.0352235 0.29786751 2.1000001
-1.0312335 0.29829305 2.1030002
-1.0272281 0.29871857 2.1060002
-1.0236923 0.29928592 2.1100001
-1.020618 0.29999512 2.115
-1.0179979 0.30084619 2.1210001
-1.0153465 0.30169722 2.1270001
-1.0126638 0.30254829 2.1330001
-1.0099502 0.30339935 2.1390002
-1.0114311 0.30552694 2.154
-1.0081645 0.30623618 2.1590002
-1.0039433 0.3066617 2.1620002
-1.0001681 0.30722907 2.1660001
-0.99591303 0.30765459 2.1690001
-0.99164236 0.30808011 2.1720002
-0.98826385 0.30878931 2.177
-0.98485953 0.30949855 2.1820002
-0.98232663 0.31049141 2.1890001
-0.97975731 0.31148431 2.1960001
-0.97670805 0.31233537 2.2020001
-0.97450948 0.3134701 2.21
-0.97270769 0.31474668 2.2190001
-0.96911609 0.31545588 2.2240002
-0.9650653 0.31602326 2.2280002
-0.96142417 0.31673244 2.233
-0.95732915 0.31729981 2.237
-0.95278805 0.31772533 2.24
-0.94865406 0.31829274 2.2440002
-0.94239843 0.31815085 2.243
-0.93781835 0.3185764 2.2460001
-0.93322253 0.31900191 2.2490001
-0.93190998 0.32056215 2.26
-0.92808175 0.32127139 2.2650001
-0.92422748 0.3219806 2.2700002
-0.91549259 0.3209877 2.263
-0.9112156 0.32155508 2.2670002
