# .PCD v0.7 - Point Cloud Data file format
VERSION 0.7
FIELDS x y z
SIZE 4 4 4
TYPE F F F
COUNT 1 1 1
WIDTH 1533
HEIGHT 1
VIEWPOINT 0 0 0 1 0 0 0
POINTS 1533
DATA ascii
1.2359462 0.79902333 3.118
1.2404635 0.79671705 3.1090002
1.2489499 0.79697329 3.1100001
1.2570373 0.79697329 3.1100001
1.2683789 0.79902333 3.118
1.2740309 0.79748583 3.1120002
1.2825354 0.79774207 3.1130002
1.2914598 0.79825461 3.1150002
1.3003947 0.79876709 3.1170001
1.3093399 0.79927969 3.1190002
1.319985 0.80081725 3.1250002
1.3293865 0.80158603 3.1280003
1.3379482 0.80184227 3.1290002
1.3465152 0.80209851 3.1300001
1.3568187 0.80337983 3.1350002
1.3662772 0.80414861 3.1380002
1.3796934 0.80722374 3.1500001
1.3874443 0.8069675 3.1490002
1.393417 0.80568618 3.1440001
1.4038218 0.8069675 3.1490002
1.4120107 0.8069675 3.1490002
1.4215524 0.80773628 3.1520002
1.4302027 0.80799252 3.1530001
1.4388582 0.80824876 3.154
1.4470599 0.80824876 3.154
1.4548004 0.80799252 3.1530001
1.4625356 0.80773628 3.1520002
1.4702656 0.80748004 3.1510003
1.4779904 0.80722374 3.1500001
1.4852383 0.80671126 3.1480002
1.4815643 0.80030471 3.1230001
1.4901626 0.80056095 3.1240001
1.4987661 0.80081725 3.1250002
1.5097855 0.80235475 3.131
1.519382 0.80312353 3.1340001
1.5250949 0.80184227 3.1290002
1.5136315 0.79159182 3.0890002
1.5216643 0.79159182 3.0890002
1.5296969 0.79159182 3.0890002
1.539721 0.79261684 3.0930002
-1.1519984 0.54982281 2.1240001
-1.1437762 0.54852855 2.1190002
-1.1361171 0.54749304 2.115
-1.1290134 0.54671645 2.112
-1.1187335 0.54438674 2.1030002
-1.1111474 0.54335129 2.0990002
-1.1046355 0.54283357 2.0970001
-1.0986581 0.5425747 2.0960002
-1.0921644 0.54205698 2.0940001
-1.0851623 0.54128039 2.0910001
-1.0797246 0.54128039 2.0910001
-1.0645255 0.53636199 2.072
-1.0576038 0.5355854 2.069
-1.0517149 0.53532654 2.0680001
-1.0463372 0.53532654 2.0680001
-1.0495168 0.53972721 2.085
-1.0430933 0.53920949 2.0830002
-1.0331931 0.53687972 2.0740001
-1.0268085 0.53636199 2.072
-1.0164908 0.53377336 2.062
-1.0096575 0.53299677 2.059
-1.0028399 0.53222018 2.056
-0.99652314 0.53170252 2.0540001
-0.99311203 0.53273791 2.0580001
-0.98776031 0.53273791 2.0580001
-0.98049921 0.53170252 2.0540001
-0.97658211 0.53247911 2.0570002
-0.97312164 0.5335145 2.0610001
-0.97010982 0.53480881 2.066
-0.96707213 0.53610313 2.0710001
-0.96493715 0.53791517 2.0780001
-0.96230394 0.53946835 2.0840001
-0.96009868 0.54128039 2.0910001
-0.95740056 0.54283357 2.0970001
-0.95467114 0.54438674 2.1030002
-0.95326447 0.54671645 2.112
-0.9500162 0.54801077 2.1170001
-0.94718796 0.549564 2.1230001
-0.94344139 0.5505994 2.1270001
-0.94805223 0.55655324 2.1500001
-0.94509137 0.55810642 2.1560001
-0.94209933 0.5596596 2.1620002
-0.94037551 0.56198931 2.171
-0.93774384 0.56380141 2.1780002
-0.9350757 0.56561345 2.1850002
-0.9323712 0.56742543 2.1920002
-0.93047577 0.56975526 2.2010002
-0.92769319 0.57156724 2.2080002
-0.92403919 0.57286155 2.2130001
-0.92077404 0.57441473 2.2190001
-0.91582841 0.57493246 2.2210002
-0.91169178 0.57596791 2.2250001
-0.91689873 0.58295715 2.2520001
-0.91953808 0.58839321 2.273
-0.9164409 0.59020531 2.2800002
-0.91570342 0.59357053 2.2930002
-0.912121 0.59512365 2.299
-0.91993773 0.60418385 2.3340001
-0.91269356 0.60340726 2.3310001
-0.91168827 0.60677248 2.3440001
-0.90791088 0.60832566 2.3500001
-0.90793973 0.61246747 2.3660002
-0.90254933 0.61298513 2.368
-0.89714855 0.61350286 2.3700001
-0.88797796 0.61143202 2.3620002
-0.88258237 0.61194968 2.3640001
-0.86457109 0.60366607 2.332
-0.8507759 0.59823 2.3110001
-0.83160681 0.588911 2.2750001
-0.81552845 0.58166289 2.2470002
-0.79635262 0.57208496 2.21
-0.77271861 0.55914187 2.1600001
-0.7631951 0.55629438 2.1490002
-0.74879324 0.54982281 2.1240001
-0.72997224 0.53998607 2.0860002
-0.72385299 0.53946835 2.0840001
-0.71533102 0.53713858 2.075
-0.45483243 0.36939603 1.427
-0.45080549 0.3691372 1.4260001
-0.4458431 0.36810172 1.4220001
-0.44183433 0.36784288 1.4210001
-0.43752244 0.36732513 1.419
-0.43383238 0.36732513 1.419
-0.42983922 0.36706629 1.4180001
-0.42555073 0.36654854 1.416
-0.42186847 0.36654854 1.416
-0.41818622 0.36654854 1.416
-0.4142113 0.36628971 1.4150001
-0.41053164 0.36628971 1.4150001
-0.40713948 0.36654854 1.416
-0.40317237 0.36628971 1.4150001
-0.39949271 0.36628971 1.4150001
-0.39553332 0.36603081 1.414
-0.39157921 0.36577198 1.4130001
-0.38790476 0.36577198 1.4130001
-0.38423032 0.36577198 1.4130001
-0.38028657 0.36551312 1.4120001
-0.37661472 0.36551312 1.4120001
-0.37294286 0.36551312 1.4120001
-0.37005562 0.36628971 1.4150001
-0.36663488 0.36654854 1.416
-0.36295268 0.36654854 1.416
-0.35749435 0.3647365 1.409
-0.35383031 0.3647365 1.409
-0.35016629 0.3647365 1.409
-0.34650224 0.3647365 1.409
-0.34259492 0.36447766 1.4080001
-0.33917418 0.3647365 1.409
-0.50911808 0.59227622 2.2880001
-0.50404787 0.59331161 2.2920001
-0.49852231 0.59382939 2.2940001
-0.49298626 0.59434706 2.296
-0.4874399 0.59486479 2.2980001
-0.48146406 0.59486479 2.2980001
-0.4756951 0.59512365 2.299
-0.46951237 0.59486479 2.2980001
-0.46272972 0.59382939 2.2940001
-0.45576867 0.59253502 2.289
-0.44844067 0.59072298 2.2820001
-0.44250643 0.59072298 2.2820001
-0.43618962 0.59020531 2.2800002
-0.43026057 0.59020531 2.2800002
-0.43010098 0.59823 2.3110001
-0.42610994 0.6010775 2.322
-0.42839348 0.61298513 2.368
-0.4313294 0.62618715 2.4190001
-0.43645999 0.64301318 2.4840002
-0.43882895 0.65621507 2.5350001
-0.44076219 0.66915816 2.585
-0.43487957 0.67045254 2.5900002
-0.42864034 0.67122912 2.5930002
-0.42206004 0.67148793 2.5940001
-0.41691554 0.67407656 2.6040001
-0.40163872 0.66009802 2.5500002
-0.38927603 0.65052009 2.513
-0.37999964 0.64586061 2.4950001
-0.36842158 0.63705933 2.4610002
-0.35569641 0.62592828 2.4180002
-0.34796351 0.62333965 2.4080002
-0.33332938 0.6080668 2.3490002
-0.32944971 0.61220855 2.365
-0.31947201 0.60496044 2.3370001
-0.31299245 0.60418385 2.3340001
-0.30166298 0.59382939 2.2940001
-0.29518193 0.59279394 2.2900002
-0.28922692 0.59279394 2.2900002
-0.28191116 0.58994639 2.279
-0.27574256 0.58942872 2.2770002
-0.2700583 0.58994639 2.279
-0.25798929 0.57622671 2.2260001
-0.24732888 0.56509566 2.1830001
-0.23855257 0.55784756 2.1550002
-0.2295976 0.54982281 2.1240001
-0.22101483 0.54231584 2.095
-0.21196556 0.5332557 2.0600002
-0.20309827 0.52419549 2.0250001
-0.193143 0.51177013 1.9770001
-0.18419813 0.50141561 1.937
-0.17490631 0.48950797 1.891
-0.16684259 0.4804478 1.8560001
-0.15852444 0.47009334 1.8160001
-0.15066837 0.46051544 1.779
-0.14357941 0.45274958 1.7490001
-0.13048469 0.43928877 1.697
-0.12584884 0.43851218 1.6940001
-0.12151536 0.43877104 1.6950001
-0.11655489 0.43670014 1.687
-0.11216792 0.43670014 1.687
-0.10790875 0.43721789 1.6890001
-0.10314885 0.43566471 1.6830001
-0.098654918 0.43514699 1.6810001
-0.094171382 0.43462926 1.6790001
-0.089537777 0.43333492 1.674
-0.085184626 0.43333492 1.674
-0.080831476 0.43333492 1.674
-0.076478317 0.43333492 1.674
-0.07221134 0.43385267 1.6760001
-0.067974433 0.43462926 1.6790001
-0.063684046 0.43514699 1.6810001
-0.059418544 0.43592358 1.6840001
-0.055137437 0.43670014 1.687
-0.050840724 0.43747672 1.6900001
-0.046473447 0.43773559 1.6910001
-0.042100962 0.43799445 1.692
-0.037701 0.43799445 1.692
-0.033301037 0.43799445 1.692
-0.028883995 0.43773559 1.6910001
-0.024472151 0.43747672 1.6900001
-0.020089269 0.43773559 1.6910001
-0.015719747 0.43851218 1.6940001
-0.011334619 0.43928877 1.697
-0.0069420477 0.44058305 1.702
-0.0025249501 0.44213623 1.7080001
0.0019222306 0.44343054 1.7130001
0.0063954159 0.44472486 1.7180001
0.010888284 0.44576034 1.7220001
0.015642889 0.45378506 1.7530001
0.061237834 0.5332557 2.0600002
0.066594765 0.5332557 2.0600002
0.071986623 0.5335145 2.0610001
0.077421211 0.53403229 2.0630002
0.082785942 0.53403229 2.0630002
0.088236123 0.53454995 2.0650001
0.093742043 0.53532654 2.0680001
0.09945529 0.53713858 2.075
0.10510388 0.5384329 2.0800002
0.11056595 0.53869176 2.0810001
0.1165348 0.54128039 2.0910001
0.12179735 0.5405038 2.0880001
0.12777549 0.54283357 2.0970001
0.13526168 0.55111718 2.1290002
0.14152551 0.55396461 2.1400001
0.14880882 0.56043619 2.1650002
0.15515216 0.56302482 2.1750002
0.16147353 0.56535453 2.184
0.1675356 0.56664884 2.1890001
0.17362367 0.56794316 2.194
0.17973773 0.56923747 2.1990001
0.18570915 0.57001406 2.2020001
0.19178307 0.57104951 2.2060001
0.19778828 0.5718261 2.2090001
0.2038091 0.57260269 2.2120001
0.20984551 0.57337928 2.2150002
0.21589753 0.57415587 2.2180002
0.22206508 0.57519132 2.2220001
0.2276382 0.57467353 2.22
0.23383178 0.57570904 2.2240002
0.23983064 0.57622671 2.2260001
0.24528822 0.57545012 2.223
0.25140783 0.57622671 2.2260001
0.25742754 0.5767445 2.2280002
0.26357579 0.57752109 2.2310002
0.26961887 0.57803875 2.233
0.27591905 0.5790742 2.237
0.28224003 0.58010972 2.2410002
0.28858182 0.58114511 2.2450001
0.29560015 0.58347487 2.2540002
0.30186281 0.58425152 2.2570002
0.30841371 0.58554578 2.2620001
0.31457385 0.5860635 2.2640002
0.3206028 0.58632237 2.2650001
0.32663697 0.58658123 2.266
0.3306219 0.58321601 2.253
0.33648068 0.58321601 2.253
0.34218755 0.58295715 2.2520001
0.34773466 0.58243942 2.25
0.3529571 0.58140397 2.2460001
0.35831845 0.58062738 2.243
0.36382657 0.58010972 2.2410002
0.36915934 0.57933313 2.2380002
0.37397385 0.57777995 2.2320001
0.37994817 0.57803875 2.233
0.38610053 0.57855654 2.2350001
0.39243859 0.57933313 2.2380002
0.39914814 0.58062738 2.243
0.40570319 0.58166289 2.2470002
0.41227901 0.58269829 2.2510002
0.42519125 0.59253502 2.289
0.44074979 0.60573703 2.3400002
0.46688515 0.63291752 2.4450002
0.47421101 0.63421184 2.45
0.4890168 0.64534289 2.493
0.72597784 0.83612418 3.2300003
0.73437726 0.83612418 3.2300003
0.74277669 0.83612418 3.2300003
0.7514087 0.83638304 3.2310002
0.76004595 0.83664191 3.2320001
0.76868832 0.83690071 3.233
0.77709556 0.83690071 3.233
0.78598881 0.8374185 3.2350001
0.79489243 0.83793622 3.2370002
0.80380636 0.83845389 3.2390001
0.81197846 0.83819509 3.2380002
0.82850647 0.84647864 3.2700002
0.83700997 0.84647864 3.2700002
0.84525478 0.84621978 3.2690001
0.85375571 0.84621978 3.2690001
0.8625204 0.84647864 3.2700002
0.87102383 0.84647864 3.2700002
0.87952733 0.84647864 3.2700002
0.88694459 0.84544325 3.2660003
0.90146929 0.85113817 3.2880001
0.91084987 0.85191476 3.2910001
0.9194079 0.85191476 3.2910001
0.91217566 0.8374185 3.2350001
0.94699502 0.83845389 3.2390001
0.95283115 0.81463861 3.1470001
0.96070945 0.81437975 3.1460001
0.95841938 0.80557847 3.1120002
0.96589071 0.80506074 3.1100001
0.97397816 0.80506074 3.1100001
0.98017091 0.80350757 3.1040001
0.98824269 0.80350757 3.1040001
0.9966355 0.80376643 3.1050003
1.0056807 0.80454296 3.108
1.014089 0.80480188 3.1090002
1.0320371 0.81256771 3.1390002
1.0408627 0.81308544 3.141
1.0597181 0.82136899 3.1730001
1.0686425 0.82188678 3.1750002
1.0887702 0.83094692 3.21
1.1083965 0.8394894 3.2430003
1.116141 0.83897167 3.2410002
1.1283858 0.84181911 3.2520001
1.1396393 0.84389007 3.2600002
1.1484689 0.84414887 3.2610002
1.1569489 0.84414887 3.2610002
1.1639994 0.84311348 3.2570002
1.1721091 0.84285456 3.256
1.1813014 0.84337229 3.2580001
1.1802788 0.83664191 3.2320001
1.1883157 0.83638304 3.2310002
1.1963474 0.83612418 3.2300003
1.1860975 0.82318103 3.1800001
1.1951182 0.82369882 3.1820002
1.2030145 0.82343996 3.1810002
1.2040516 0.81852156 3.1620002
1.2118908 0.8182627 3.1610003
1.2193389 0.81774497 3.1590002
1.2291081 0.81878042 3.1630001
1.2369421 0.81852156 3.1620002
1.2286255 0.80764931 3.1200001
1.2363425 0.80739051 3.1190002
1.2416605 0.80557847 3.1120002
1.249753 0.80557847 3.1120002
1.2578456 0.80557847 3.1120002
1.2683789 0.80713159 3.118
1.275259 0.80635506 3.1150002
1.2833595 0.80635506 3.1150002
1.292289 0.80687273 3.1170001
1.301229 0.80739051 3.1190002
1.3101794 0.80790818 3.1210001
1.3204074 0.80920255 3.1260002
1.3298115 0.80997914 3.1290002
1.3383758 0.81023794 3.1300001
1.3469453 0.81049681 3.131
1.3568187 0.81153232 3.1350002
1.3662772 0.81230891 3.1380002
1.3753134 0.81282657 3.1400001
1.3887661 0.81593293 3.1520002
1.3974057 0.81619179 3.1530001
1.4042677 0.8154152 3.1500001
1.4120107 0.81515634 3.1490002
1.4215524 0.81593293 3.1520002
1.4483467 0.82654625 3.1930001
1.4539127 0.82499307 3.187
1.4617416 0.82473421 3.1860001
1.4695653 0.82447541 3.1850002
1.4773837 0.82421654 3.1840003
1.4851968 0.82395762 3.1830001
1.4930049 0.82369882 3.1820002
1.5003359 0.82318103 3.1800001
1.4953221 0.81593293 3.1520002
1.5030417 0.81567413 3.1510003
1.5107561 0.8154152 3.1500001
1.5155721 0.81360316 3.1430001
1.519382 0.8112734 3.1340001
1.5265571 0.81075573 3.1320002
1.5351917 0.81101453 3.1330001
1.5408759 0.80972028 3.1280003
1.5475245 0.80894369 3.1250002
1.5412145 0.80143666 3.0960002
-1.132473 0.54593349 2.0880001
-1.1243443 0.54462624 2.0830002
-1.1167789 0.54358029 2.079
-1.1103035 0.54305744 2.0770001
-1.1022424 0.54175007 2.072
-1.0936781 0.54018128 2.066
-1.0867254 0.53939694 2.0630002
-1.0808363 0.53913546 2.062
-1.0744312 0.53861254 2.0600002
-1.0737449 0.54096568 2.069
-1.0688809 0.54122722 2.0700002
-1.0619568 0.54044282 2.0670002
-1.0555593 0.53991985 2.0650001
-1.0496807 0.53965843 2.0640001
-1.0468432 0.54096568 2.069
-1.0334091 0.53678232 2.0530002
-1.0270687 0.53625941 2.0510001
-1.0207388 0.53573644 2.049
-1.0144196 0.53521353 2.0470002
-1.013533 0.53756666 2.056
-1.0081865 0.53756666 2.056
-1.0004011 0.53625941 2.0510001
-0.99361217 0.53547502 2.0480001
-0.98539102 0.53390622 2.0420001
-0.9800809 0.53390622 2.0420001
-0.97763497 0.53547502 2.0480001
-0.97373354 0.53625941 2.0510001
-0.97123301 0.53782821 2.0570002
-0.96823162 0.53913546 2.062
-0.96613818 0.54096568 2.069
-0.96400851 0.54279596 2.0760002
-0.96184224 0.54462624 2.0830002
-0.95963955 0.54645646 2.0900002
-0.95694399 0.54802525 2.0960002
-0.95421708 0.54959393 2.102
-0.95326447 0.55220854 2.112
-0.9500162 0.55351591 2.1170001
-0.94718796 0.55508471 2.1230001
-0.94344139 0.55613053 2.1270001
-0.94496554 0.56031394 2.1430001
-0.94465303 0.56345153 2.1550002
-0.9416635 0.5650202 2.161
-0.94037551 0.56763482 2.171
-0.9373132 0.56920362 2.177
-0.93464768 0.57103384 2.184
-0.9323712 0.5731256 2.1920002
-0.93005294 0.57521725 2.2
-0.92685288 0.57678604 2.2060001
-0.92362165 0.57835484 2.2120001
-0.92035913 0.57992363 2.2180002
-0.915416 0.58044654 2.22
-0.91087222 0.58123088 2.223
-0.91730589 0.58907479 2.253
-0.91468352 0.5911665 2.2610002
-0.92086232 0.59901035 2.2910001
-0.91610271 0.59979475 2.2940001
-0.92521363 0.6097303 2.332
-0.92348504 0.61260641 2.3430002
-0.91582602 0.61156058 2.3390002
-0.91246617 0.6133908 2.3460002
-0.90868348 0.61495954 2.352
-0.90832341 0.61888152 2.3670001
-0.90254933 0.61914295 2.368
-0.89677006 0.61940444 2.3690002
-0.88722605 0.6170513 2.3600001
-0.88183576 0.61757421 2.3620002
-0.86753708 0.61182201 2.3400002
-0.83715463 0.59456551 2.2740002
-0.82868248 0.59273529 2.2670002
-0.80464011 0.57966214 2.217
-0.78302002 0.56815779 2.1730001
-0.77558059 0.56685054 2.1680002
-0.75147551 0.55325449 2.1160002
-0.73715943 0.54671788 2.0910001
-0.72262347 0.53991985 2.0650001
-0.72176892 0.54331887 2.0780001
-0.71429682 0.54175007 2.072
-0.45565131 0.37075371 1.4180001
-0.45355752 0.37206101 1.4230001
-0.4492248 0.3715381 1.4210001
-0.44521606 0.37127662 1.4200001
-0.44121245 0.37101513 1.419
-0.43721414 0.37075371 1.4180001
-0.43322092 0.37049222 1.4170001
-0.42923293 0.37023073 1.416
-0.4252502 0.36996931 1.4150001
-0.42127261 0.36970782 1.414
-0.41759557 0.36970782 1.414
-0.41362584 0.3694464 1.4130001
-0.40995139 0.3694464 1.4130001
-0.40627694 0.3694464 1.4130001
-0.40231758 0.36918491 1.4120001
-0.39836338 0.36892343 1.411
-0.39441442 0.368662 1.4100001
-0.39074782 0.368662 1.4100001
-0.38653213 0.36813909 1.4080001
-0.38259876 0.3678776 1.4070001
-0.3786706 0.36761612 1.406
-0.37501436 0.36761612 1.406
-0.3713581 0.36761612 1.406
-0.36874801 0.368662 1.4100001
-0.36534026 0.36892343 1.411
-0.36167106 0.36892343 1.411
-0.3564795 0.36735469 1.4050001
-0.35282585 0.36735469 1.4050001
-0.3491722 0.36735469 1.4050001
-0.34551859 0.36735469 1.4050001
-0.34162164 0.36709321 1.404
-0.33748916 0.36657029 1.4020001
-0.33336708 0.36604738 1.4000001
-0.3290199 0.36526299 1.3970001
-0.50911808 0.59822595 2.2880001
-0.50382799 0.59901035 2.2910001
-0.49830502 0.59953332 2.2930002
-0.49277157 0.60005623 2.2950001
-0.48680353 0.60005623 2.2950001
-0.48062602 0.59979475 2.2940001
-0.47445366 0.59953332 2.2930002
-0.46644765 0.59691864 2.283
-0.45970398 0.59587282 2.279
-0.45258287 0.59430403 2.273
-0.44608256 0.59351969 2.2700002
-0.43281087 0.58358407 2.2320001
-0.42719796 0.58384556 2.233
-0.42139113 0.58384556 2.233
-0.42042321 0.59064358 2.2590001
-0.41711792 0.59430403 2.273
-0.42591745 0.63378483 2.424
-0.42948112 0.64868826 2.4810002
-0.43121377 0.66123837 2.529
-0.4284991 0.667252 2.552
-0.42202809 0.66751355 2.5530002
-0.41538912 0.66751355 2.5530002
-0.40875018 0.66751355 2.5530002
-0.39738604 0.65966964 2.523
-0.38664263 0.65261012 2.4960001
-0.37512589 0.64398187 2.4630001
-0.36422986 0.63613802 2.4330001
-0.35481378 0.63064736 2.4120002
-0.34333938 0.62123466 2.3760002
-0.33290365 0.6133908 2.3460002
-0.32499209 0.60999179 2.3330002
-0.31933531 0.61077619 2.3360002
-0.3077625 0.60005623 2.2950001
-0.30166298 0.59979475 2.2940001
-0.29531083 0.59901035 2.2910001
-0.28910059 0.59848744 2.289
-0.28079787 0.59351969 2.2700002
-0.27477375 0.5932582 2.2690001
-0.26519987 0.58515286 2.2380002
-0.25439644 0.57391 2.1950002
-0.24778207 0.57181823 2.187
-0.2368921 0.55952954 2.1400001
-0.22970569 0.55560756 2.125
-0.21795544 0.54018128 2.066
-0.20826131 0.5291999 2.0240002
-0.19858499 0.51769555 1.9800001
-0.18864903 0.50488389 1.9310001
-0.1794434 0.49337956 1.8870001
-0.17000413 0.4805679 1.8380001
-0.16189845 0.4708938 1.8010001
-0.15442164 0.46252698 1.7690001
-0.14045991 0.44736218 1.7110001
-0.13593103 0.4471007 1.71
-0.12871619 0.43768805 1.674
-0.12421444 0.43716514 1.6720001
-0.12008155 0.43794951 1.6750001
-0.11558763 0.4374266 1.6730001
-0.1110376 0.4366422 1.6700001
-0.10637541 0.43533489 1.6650001
-0.10198436 0.43507344 1.664
-0.097539835 0.43455049 1.6620001
-0.093330063 0.43507344 1.664
-0.089377321 0.43690369 1.6710001
-0.084217779 0.43272027 1.6550001
-0.080252036 0.43455049 1.6620001
-0.076204211 0.43611929 1.6680001
-0.071952827 0.4366422 1.6700001
-0.067772008 0.43768805 1.674
-0.063532509 0.43847245 1.677
-0.059312694 0.4395183 1.6810001
-0.055006701 0.44004121 1.6830001
-0.05072039 0.44082561 1.6860001
-0.046390999 0.44134852 1.6880001
-0.0420512 0.44187146 1.6900001
-0.037634157 0.44161001 1.6890001
-0.033261675 0.44187146 1.6900001
-0.028849833 0.44161001 1.6890001
-0.024457671 0.44161001 1.6890001
-0.020077389 0.44187146 1.6900001
-0.015701186 0.44239438 1.692
-0.011327941 0.44344023 1.6960001
-0.006937969 0.44474754 1.7010001
-0.0025234721 0.44631633 1.7070001
0.0019211086 0.44762364 1.7120001
0.0063916938 0.44893095 1.7170001
0.01088196 0.4499768 1.7210001
0.015625041 0.45782065 1.751
0.061237834 0.53861254 2.0600002
0.066627085 0.53887403 2.0610001
0.071916766 0.53835106 2.059
0.077383675 0.53913546 2.062
0.082826063 0.53965843 2.0640001
0.088193394 0.53965843 2.0640001
0.093696713 0.54044282 2.0670002
0.099215642 0.54122722 2.0700002
0.10490176 0.54279596 2.0760002
0.11045968 0.54358029 2.079
0.11614468 0.54488766 2.0840001
0.12203067 0.54697931 2.092
0.12862854 0.55194712 2.1110001
0.13494402 0.55534613 2.1240001
0.14179003 0.56057537 2.1440001
0.14839642 0.56449735 2.1590002
0.15500948 0.56815779 2.1730001
0.16154747 0.57129538 2.1850002
0.1675356 0.5723412 2.1890001
0.17362367 0.57364851 2.194
0.179656 0.5746944 2.1980002
0.18562481 0.57547879 2.2010002
0.19160919 0.57626313 2.204
0.19751967 0.57678604 2.2060001
0.20353268 0.57757044 2.2090001
0.20946656 0.57809341 2.2110002
0.21541083 0.57861626 2.2130001
0.22146544 0.57940066 2.2160001
0.22722805 0.57940066 2.2160001
0.23341121 0.58044654 2.22
0.23939969 0.58096945 2.2220001
0.24517789 0.58096945 2.2220001
0.25129491 0.58175385 2.2250001
0.25742754 0.58253825 2.2280002
0.26357579 0.58332264 2.2310002
0.26973963 0.58410704 2.2340002
0.2760424 0.58515286 2.2380002
0.28236598 0.58619869 2.2420001
0.28871033 0.58724457 2.2460001
0.29546899 0.58907479 2.253
0.30172902 0.58985919 2.256
0.30814102 0.59090501 2.26
0.31429595 0.59142792 2.2620001
0.32046127 0.59195089 2.2640002
0.32649282 0.59221232 2.2650001
0.33223614 0.59195089 2.2640002
0.33797416 0.59168941 2.263
0.34188366 0.58829039 2.25
0.34742558 0.58776748 2.2480001
0.35279995 0.58698308 2.2450001
0.35815871 0.58619869 2.2420001
0.36366421 0.58567578 2.24
0.36816964 0.58358407 2.2320001
0.37397385 0.58358407 2.2320001
0.37994817 0.58384556 2.233
0.3859278 0.58410704 2.2340002
0.39243859 0.58515286 2.2380002
0.39914814 0.58646017 2.243
0.40570319 0.58750606 2.2470002
0.41227901 0.58855188 2.2510002
0.42500553 0.59822595 2.2880001
0.44056144 0.61156058 2.3390002
0.45447305 0.62228054 2.3800001
0.46085566 0.62254196 2.381
0.47587436 0.6343078 2.4260001
0.7054463 0.84007865 3.2130001
0.71557885 0.84217042 3.2210002
0.7255283 0.84400064 3.2280002
0.73392254 0.84400064 3.2280002
0.74231678 0.84400064 3.2280002
0.7439667 0.83641821 3.1990001
0.7520504 0.83615679 3.1980002
0.76036668 0.83615679 3.1980002
0.7686829 0.83615679 3.1980002
0.77724212 0.83641821 3.1990001
0.78580648 0.83667964 3.2
0.79437613 0.83694118 3.2010002
0.81147689 0.84609228 3.2360001
0.81963861 0.84583086 3.2350001
0.83700997 0.85498208 3.2700002
0.84499621 0.85445911 3.2680001
0.85349452 0.85445911 3.2680001
0.86225659 0.85472059 3.2690001
0.87102383 0.85498208 3.2700002
0.8897481 0.86491764 3.3080001
0.90052301 0.86700934 3.3160002
0.90942019 0.86727077 3.3170002
0.91776919 0.86700934 3.3160002
0.91302156 0.84661525 3.2380002
0.94971597 0.81314808 3.1100001
0.95749545 0.81288666 3.1090002
0.96495897 0.81236368 3.1070001
0.97890782 0.81053346 3.1000001
0.98728752 0.81079489 3.1010001
0.99631447 0.81157929 3.1040001
1.005357 0.81236368 3.1070001
1.014089 0.81288666 3.1090002
1.0317085 0.82046902 3.1380002
1.0408627 0.82125336 3.141
1.0597181 0.82962018 3.1730001
1.0689791 0.83040458 3.1760001
1.088431 0.83903283 3.2090001
1.0971177 0.83929425 3.21
1.1164854 0.84766108 3.2420001
1.1283858 0.8502757 3.2520001
1.1403383 0.85289031 3.2620001
1.1495254 0.85341328 3.2640002
1.1580132 0.85341328 3.2640002
1.1722193 0.8575967 3.2800002
1.176069 0.85419768 3.2670002
1.1827517 0.85289031 3.2620001
1.1919647 0.85341328 3.2640002
1.2000849 0.85315186 3.2630002
1.207459 0.85236746 3.2600002
1.2073578 0.84635383 3.2370002
1.2150242 0.84583086 3.2350001
1.2109565 0.83720261 3.2020001
1.2204255 0.83798701 3.2050002
1.2118908 0.82648265 3.1610003
1.2193389 0.82595974 3.1590002
1.226388 0.82517534 3.1560001
1.2377244 0.82726699 3.164
1.2451648 0.82674414 3.1620002
1.2486306 0.82360655 3.1500001
1.2572211 0.82386804 3.1510003
1.2650135 0.82360655 3.1500001
1.2732049 0.82360655 3.1500001
1.2818031 0.82386804 3.1510003
1.2879502 0.82256073 3.1460001
1.2973672 0.82334512 3.1490002
1.3063853 0.82386804 3.1510003
1.3149965 0.82412952 3.1520002
1.3236128 0.82439095 3.1530001
1.3322344 0.82465237 3.154
1.3408613 0.82491392 3.1550002
1.3494934 0.82517534 3.1560001
1.3585607 0.82569832 3.1580002
1.3719665 0.82883579 3.1700001
1.3802098 0.82883579 3.1700001
1.3867013 0.82778996 3.1660001
1.3958156 0.82831293 3.1680002
1.4036106 0.82805139 3.1670001
1.4163042 0.83066601 3.177
1.4241174 0.83040458 3.1760001
1.4445534 0.83746403 3.2030001
1.4497075 0.83563381 3.1960001
1.4630369 0.83850998 3.2070003
1.4727528 0.83929425 3.21
1.4820231 0.83981723 3.2120001
1.4903758 0.83981723 3.2120001
1.4982618 0.8395558 3.2110002
1.5052042 0.8387714 3.2080002
1.5126029 0.83824843 3.2060001
1.5195166 0.83746403 3.2030001
1.5264149 0.83667964 3.2
1.5337772 0.83615679 3.1980002
1.5160543 0.82203776 3.1440001
1.5358655 0.82831293 3.1680002
1.5265571 0.81890029 3.1320002
1.5347017 0.81890029 3.1320002
1.5408759 0.8178544 3.1280003
1.5475245 0.81707001 3.1250002
1.555153 0.81680852 3.1240001
-1.1297612 0.55004299 2.0830002
-1.122725 0.54925078 2.0800002
-1.1157047 0.54845858 2.0770001
-1.1086998 0.54766637 2.0740001
-1.1011785 0.54661018 2.0700002
-1.09209 0.54476172 2.0630002
-1.0851451 0.54396951 2.0600002
-1.0792638 0.5437054 2.059
-1.0775604 0.54555386 2.066
-1.0711501 0.54502577 2.0640001
-1.0637172 0.54396951 2.0600002
-1.0655531 0.54766637 2.0740001
-1.0535146 0.54423356 2.0610001
-1.048155 0.54423356 2.0610001
-1.0422896 0.54396951 2.0600002
-1.0318991 0.54132891 2.0500002
-1.0255665 0.54080075 2.0480001
-1.0192444 0.54027259 2.046
-1.0134283 0.54000854 2.0450001
-1.0086033 0.54027259 2.046
-1.0027925 0.54000854 2.0450001
-0.99552351 0.53895229 2.0410001
-0.9907012 0.53921634 2.0420001
-0.98153061 0.53710389 2.0340002
-0.9772011 0.53763199 2.036
-0.97429347 0.53895229 2.0410001
-0.97088498 0.54000854 2.0450001
-0.96887219 0.541857 2.052
-0.96682292 0.5437054 2.059
-0.9652043 0.54581797 2.0670002
-0.96354407 0.54793042 2.075
-0.96138036 0.54977888 2.082
-0.95963955 0.55189139 2.0900002
-0.95694399 0.5534758 2.0960002
-0.95376319 0.5547961 2.1010001
-0.95326447 0.55770075 2.112
-0.9500162 0.55902106 2.1170001
-0.94718796 0.56060547 2.1230001
-0.94344139 0.56166172 2.1270001
-0.94099694 0.56351012 2.1340001
-0.94465303 0.5690555 2.1550002
-0.94079208 0.57011175 2.1590002
-0.93864292 0.5722242 2.1670001
-0.93645221 0.57433677 2.1750002
-0.93379182 0.57618517 2.1820002
-0.93152046 0.57829767 2.1900001
-0.92963022 0.58067423 2.1990001
-0.92433196 0.58093828 2.2
-0.92320412 0.58384299 2.2110002
-0.91828436 0.58437109 2.2130001
-0.91335434 0.58489925 2.2150002
-0.91292101 0.58833206 2.2280002
-0.91486305 0.59334928 2.2470002
-0.91387439 0.59651798 2.2590001
-0.92126423 0.60523206 2.2920001
-0.916502 0.60602427 2.2950001
-0.92402339 0.61500239 2.329
-0.92309082 0.6184352 2.342
-0.91621751 0.61790711 2.3400002
-0.91246617 0.61949152 2.3460002
-0.90868348 0.62107581 2.352
-0.90793973 0.62477273 2.3660002
-0.90216821 0.62503678 2.3670001
-0.89639145 0.62530082 2.368
-0.88647413 0.62266022 2.358
-0.86951536 0.61500239 2.329
-0.85270739 0.60734463 2.3000002
-0.83678645 0.60021484 2.273
-0.81406075 0.58806795 2.227
-0.80500311 0.58569145 2.2180002
-0.78590268 0.57592106 2.181
-0.76162869 0.56218988 2.1290002
-0.75112027 0.55849296 2.115
-0.7357493 0.55109918 2.0870001
-0.72647285 0.54819453 2.0760002
-0.72037959 0.54766637 2.0740001
-0.71326256 0.54634607 2.069
-0.4546873 0.37364897 1.4150001
-0.45228258 0.3747052 1.419
-0.4482764 0.37444115 1.4180001
-0.44458899 0.37444115 1.4180001
-0.44059059 0.37417707 1.4170001
-0.43659744 0.37391299 1.416
-0.43291518 0.37391299 1.416
-0.42892981 0.37364897 1.4150001
-0.42494968 0.37338489 1.414
-0.4209747 0.37312084 1.4130001
-0.41700491 0.37285677 1.4120001
-0.41304037 0.37259269 1.411
-0.40937111 0.37259269 1.411
-0.40541434 0.37232864 1.4100001
-0.40146279 0.37206456 1.409
-0.39751643 0.37180051 1.4080001
-0.39329553 0.37127239 1.406
-0.38936219 0.37100834 1.4050001
-0.38515952 0.37048021 1.4030001
-0.3809672 0.36995205 1.401
-0.37705466 0.369688 1.4000001
-0.37341404 0.369688 1.4000001
-0.36977339 0.369688 1.4000001
-0.36247143 0.36599112 1.386
-0.3588672 0.36599112 1.386
-0.35551932 0.36625519 1.3870001
-0.35521087 0.369688 1.4000001
-0.35182133 0.36995205 1.401
-0.34817812 0.36995205 1.401
-0.3445349 0.36995205 1.401
-0.34064835 0.369688 1.4000001
-0.33652627 0.36915991 1.3980001
-0.3324146 0.36863175 1.396
-0.32831335 0.36810362 1.3940001
-0.3235237 0.36678332 1.3890001
-0.31945106 0.36625519 1.3870001
-0.50382799 0.60496801 2.2910001
-0.49808767 0.60523206 2.2920001
-0.49234217 0.60549617 2.2930002
-0.48659143 0.60576022 2.2940001
-0.48020697 0.60523206 2.2920001
-0.47383291 0.60470396 2.2900002
-0.45990965 0.59440553 2.2510002
-0.45466119 0.59519774 2.2540002
-0.44282639 0.58727586 2.2240002
-0.43684644 0.58701175 2.223
-0.4314535 0.58753991 2.2250001
-0.42547619 0.58727586 2.2240002
-0.41969278 0.58727586 2.2240002
-0.41353714 0.58674771 2.2220001
-0.40794244 0.58701175 2.223
-0.40994072 0.59836644 2.266
-0.41207203 0.61024928 2.3110001
-0.41555065 0.62450862 2.365
-0.41736352 0.63665551 2.411
-0.42200637 0.65355557 2.4750001
-0.4167456 0.65540403 2.4820001
-0.41326678 0.66015714 2.5
-0.40676564 0.66015714 2.5
-0.40010443 0.6598931 2.4990001
-0.39329094 0.659365 2.4970002
-0.3816857 0.65065092 2.4640002
-0.37040445 0.64220089 2.4320002
-0.35928965 0.63375086 2.4000001
-0.34966514 0.62767744 2.3770001
-0.34261686 0.62609303 2.3710001
-0.32921419 0.61262584 2.3200002
-0.32332045 0.61288989 2.3210001
-0.31455073 0.60760868 2.3010001
-0.3077625 0.60602427 2.2950001
-0.30139998 0.60523206 2.2920001
-0.29505301 0.60443985 2.289
-0.28897429 0.60417581 2.2880001
-0.28215855 0.60232741 2.2810001
-0.27053529 0.58991647 2.2340002
-0.26377788 0.5878039 2.2260001
-0.25428054 0.57935387 2.194
-0.24347676 0.56747109 2.1490002
-0.23368187 0.5574367 2.1110001
-0.22332798 0.54555386 2.066
-0.21320812 0.53367108 2.0210001
-0.2032194 0.52152419 1.9750001
-0.19316903 0.5085851 1.9260001
-0.18278733 0.49406162 1.8710001
-0.17373773 0.48244286 1.8270001
-0.16510195 0.47135222 1.7850001
-0.15722398 0.46184593 1.7490001
-0.15023158 0.45445219 1.7210001
-0.14533274 0.45313188 1.7160001
-0.13766876 0.44283342 1.677
-0.13298984 0.44177717 1.6730001
-0.12848552 0.44124904 1.6710001
-0.12399156 0.44072092 1.669
-0.11886282 0.43781623 1.6580001
-0.11413673 0.43623185 1.6520001
-0.10970781 0.43570372 1.6500001
-0.10535318 0.43543965 1.649
-0.10137147 0.43675998 1.654
-0.097011648 0.43649593 1.6530001
-0.092432663 0.4351756 1.6480001
-0.088254087 0.43570372 1.6500001
-0.083912455 0.43543965 1.649
-0.079817466 0.43649593 1.6530001
-0.075610287 0.43702406 1.6550001
-0.071435802 0.43781623 1.6580001
-0.067286186 0.43887249 1.6620001
-0.063380972 0.44177717 1.6730001
-0.059136271 0.44256938 1.6760001
-0.054843284 0.4430975 1.6780001
-0.050600056 0.44415373 1.682
-0.046281066 0.44468188 1.6840001
-0.041951671 0.44521001 1.6860001
-0.037589591 0.44547403 1.687
-0.03320263 0.44547403 1.687
-0.02881567 0.44547403 1.687
-0.024428708 0.44547403 1.687
-0.020053629 0.44573811 1.6880001
-0.015691908 0.44653031 1.6910001
-0.011321262 0.44758654 1.6950001
-0.0069338903 0.44890687 1.7
-0.0025219936 0.45049125 1.7060001
0.0019199863 0.45181155 1.7110001
0.0063879709 0.45313188 1.7160001
0.010888284 0.45471627 1.7220001
0.015393029 0.45550841 1.725
0.061297283 0.54449761 2.062
0.066594765 0.54396951 2.0600002
0.071916766 0.5437054 2.059
0.077308625 0.54396951 2.0600002
0.082785942 0.54476172 2.0630002
0.088150665 0.54476172 2.0630002
0.093696713 0.54581797 2.0670002
0.099215642 0.54661018 2.0700002
0.10475017 0.54740232 2.0730002
0.11035343 0.54845858 2.0770001
0.11608895 0.55004299 2.0830002
0.12173901 0.55109918 2.0870001
0.12826294 0.55585229 2.105
0.13475342 0.56007731 2.1210001
0.14185618 0.56641489 2.1450002
0.14805275 0.56879139 2.154
0.15522349 0.57460082 2.1760001
0.16154747 0.57697737 2.1850002
0.1675356 0.57803363 2.1890001
0.17354453 0.57908988 2.1930001
0.17949252 0.57988203 2.1960001
0.18545613 0.58067423 2.1990001
0.19134839 0.58120239 2.2010002
0.19725105 0.58173048 2.2030001
0.20316415 0.58225864 2.2050002
0.2090876 0.58278674 2.207
0.21492414 0.58305085 2.2080002
0.22096574 0.58384299 2.2110002
0.22681789 0.58410704 2.2120001
0.23299065 0.5851633 2.2160001
0.23907647 0.5859555 2.2190001
0.24506755 0.58648366 2.2210002
0.25118199 0.58727586 2.2240002
0.25742754 0.58833206 2.2280002
0.26369393 0.58938831 2.2320001
0.26998109 0.59044456 2.2360001
0.27628908 0.59150082 2.24
0.28261787 0.59255707 2.2440002
0.28896743 0.59361333 2.2480001
0.29560015 0.59519774 2.2540002
0.30186281 0.59598988 2.2570002
0.30814102 0.59678203 2.26
0.31429595 0.59731019 2.2620001
0.32046127 0.59783834 2.2640002
0.32649282 0.59810239 2.2650001
0.33223614 0.59783834 2.2640002
0.33797416 0.59757423 2.263
0.34370705 0.59731019 2.2620001
0.34727103 0.59334928 2.2470002
0.35264283 0.59255707 2.2440002
0.35799897 0.59176487 2.2410002
0.36301482 0.59044456 2.2360001
0.37014908 0.59255707 2.2440002
0.37363872 0.58886015 2.23
0.37926757 0.58859611 2.2290001
0.3859278 0.58991647 2.2340002
0.39243859 0.59097272 2.2380002
0.39914814 0.59229296 2.243
0.40588373 0.59361333 2.2480001
0.41209584 0.59414142 2.25
0.42481977 0.60391182 2.2870002
0.44056144 0.61764306 2.3390002
0.44778961 0.61922741 2.345
0.45466194 0.62028372 2.3490002
0.68732798 0.83655119 3.1680002
0.70456809 0.84737772 3.2090001
0.71990925 0.84579331 3.2030001
0.7277838 0.84526527 3.2010002
0.73518795 0.84420902 3.1970003
0.7435016 0.84420902 3.1970003
0.75158006 0.84394491 3.1960001
0.75965333 0.84368086 3.1950002
0.7679618 0.84368086 3.1950002
0.77651322 0.84394491 3.1960001
0.78506982 0.84420902 3.1970003
0.79363161 0.84447306 3.1980002
0.8102231 0.85318714 3.2310002
0.81837183 0.8529231 3.2300003
0.82600343 0.85213089 3.2270002
0.84447914 0.86242932 3.2660003
0.85297221 0.86242932 3.2660003
0.86199284 0.86295742 3.2680001
0.87794942 0.8703512 3.2960002
0.88894117 0.87272775 3.3050001
0.90079457 0.87589651 3.3170002
0.90969431 0.87616056 3.3180001
0.91804594 0.87589651 3.3170002
0.94932985 0.88091373 3.3360002
0.95771778 0.88064969 3.3350003
0.93414158 0.82176363 3.1120002
0.94102293 0.82070738 3.108
0.94849449 0.82017928 3.1060002
0.95595551 0.81965113 3.1040001
0.96371669 0.81938708 3.1030002
0.97022003 0.81806672 3.098
0.9785921 0.81833082 3.0990002
0.98728752 0.81885892 3.1010001
0.99631447 0.81965113 3.1040001
1.005357 0.82044333 3.1070001
1.014089 0.82097149 3.1090002
1.0225025 0.82123548 3.1100001
1.0415255 0.82994956 3.1430001
1.0507007 0.83074176 3.1460001
1.0696523 0.83919179 3.1780002
1.0880919 0.84711367 3.2080002
1.0974596 0.84790587 3.2110002
1.1182073 0.85741216 3.2470002
1.1322026 0.86163718 3.2630002
1.1406879 0.86163718 3.2630002
1.148821 0.86137307 3.2620001
1.1743332 0.87404811 3.3100002
1.184013 0.87484026 3.3130002
1.1926283 0.87484026 3.3130002
1.201606 0.87510431 3.3140001
1.1930603 0.86269337 3.2670002
1.2011883 0.86242932 3.2660003
1.2093109 0.86216521 3.2650001
1.2233962 0.86612618 3.2800002
1.2315501 0.86586213 3.279
1.2287313 0.8579402 3.2490001
1.2211871 0.84684962 3.2070003
1.2314436 0.84816992 3.2120001
1.2390243 0.84764177 3.21
1.2469832 0.84737772 3.2090001
1.2541544 0.84658551 3.2060001
1.2624915 0.84658551 3.2060001
1.2704322 0.84632146 3.2050002
1.2783676 0.84605742 3.2040002
1.2862978 0.84579331 3.2030001
1.294223 0.84552932 3.2020001
1.3021427 0.84526527 3.2010002
1.3100574 0.84500116 3.2
1.317555 0.84447306 3.1980002
1.3250419 0.84394491 3.1960001
1.3279294 0.8405121 3.1830001
1.3366265 0.84077621 3.1840003
1.3449063 0.84077621 3.1840003
1.3540361 0.8413043 3.1860001
1.3623211 0.8413043 3.1860001
1.3697459 0.84077621 3.1840003
1.3780257 0.84077621 3.1840003
1.38587 0.8405121 3.1830001
1.3937093 0.84024805 3.1820002
1.397578 0.83760738 3.1720002
1.4053833 0.83734339 3.1710002
1.4180875 0.839984 3.1810002
1.4492278 0.85345119 3.2320001
1.4585345 0.85397929 3.2340002
1.4683052 0.85477149 3.2370002
1.4785477 0.85582775 3.2410002
1.4888109 0.856884 3.2450001
1.501402 0.85926056 3.2540002
1.5098639 0.85926056 3.2540002
1.5178591 0.85899651 3.2530003
1.5216264 0.85635591 3.2430003
1.5126029 0.84658551 3.2060001
1.5195166 0.84579331 3.2030001
1.5264149 0.84500116 3.2
1.5337772 0.84447306 3.1980002
1.5416112 0.84420902 3.1970003
1.54944 0.84394491 3.1960001
1.5445911 0.83681524 3.1690001
1.5528319 0.83681524 3.1690001
1.5551615 0.83364642 3.1570001
1.5603999 0.83206213 3.1510003
1.5666026 0.83100581 3.1470001
-1.1151171 0.54825979 2.056
-1.1076114 0.54719311 2.052
-1.1012011 0.54665983 2.0500002
-1.0948009 0.54612648 2.0480001
-1.0868152 0.54479313 2.043
-1.0899725 0.54905975 2.059
-1.0872521 0.5503931 2.0640001
-1.0776913 0.54825979 2.056
-1.0713017 0.54772645 2.0540001
-1.0644035 0.5469265 2.0510001
-1.0497752 0.54212654 2.033
-1.0434611 0.54159325 2.0310001
-1.0381796 0.54159325 2.0310001
-1.0323895 0.54132658 2.0300002
-1.0271106 0.54132658 2.0300002
-1.0298855 0.54559314 2.046
-1.0240642 0.54532647 2.0450001
-1.0182481 0.54505986 2.0440001
-1.0124371 0.54479313 2.043
-0.99282861 0.53705996 2.0140002
-0.99200445 0.53945988 2.023
-0.986256 0.53919321 2.0220001
-0.98002756 0.53865987 2.02
-0.97863519 0.54079324 2.0280001
-0.97432142 0.54132658 2.0300002
-0.97142929 0.54265988 2.0350001
-0.96851122 0.54399323 2.0400002
-0.96698356 0.54612648 2.0480001
-0.96541423 0.54825979 2.056
-0.9652043 0.55119312 2.0670002
-0.96354407 0.55332637 2.075
-0.96138036 0.55519301 2.082
-0.95963955 0.55732638 2.0900002
-0.95694399 0.55892634 2.0960002
-0.95421708 0.56052631 2.102
-0.95326447 0.5631929 2.112
-0.9500162 0.56452626 2.1170001
-0.94674188 0.56585962 2.1220002
-0.94344139 0.56719291 2.1270001
-0.94099694 0.56905955 2.1340001
-0.94377631 0.57412612 2.1530001
-0.93992049 0.57519281 2.1570001
-0.93734342 0.57705945 2.164
-0.93516052 0.57919276 2.1720002
-0.93250799 0.5810594 2.1790001
-0.92811769 0.58185941 2.1820002
-0.92582548 0.58399266 2.1900001
-0.92223126 0.58532602 2.1950002
-0.91902864 0.58692598 2.2010002
-0.9149648 0.58799267 2.2050002
-0.91088021 0.58905929 2.2090001
-0.91169178 0.59332591 2.2250001
-0.91527015 0.59945917 2.2480001
-0.91306537 0.60185915 2.2570002
-0.92166626 0.61145902 2.2930002
-0.91690135 0.61225897 2.296
-0.92362666 0.62079221 2.3280001
-0.92269671 0.62425882 2.3410001
-0.91974145 0.62639219 2.3490002
-0.91207719 0.6253255 2.345
-0.90829718 0.62692547 2.3510001
-0.90755588 0.63065875 2.365
-0.9017871 0.63092542 2.3660002
-0.8960129 0.63119209 2.3670001
-0.88572228 0.62825882 2.3560002
-0.87175542 0.62265885 2.335
-0.85233659 0.61305898 2.299
-0.83641833 0.60585904 2.2720001
-0.81406075 0.5938592 2.227
-0.79193723 0.58185941 2.1820002
-0.78554237 0.58132607 2.1800001
-0.76449054 0.5698595 2.1370001
-0.75041008 0.56345963 2.1130002
-0.73433918 0.55545974 2.0830002
-0.72612286 0.55332637 2.075
-0.7196849 0.55252641 2.072
-0.71429682 0.55252641 2.072
-0.45771906 0.37679529 1.4130001
-0.45436597 0.37706193 1.414
-0.45164511 0.37786192 1.4170001
-0.44764411 0.37759525 1.416
-0.44396189 0.37759525 1.416
-0.43996873 0.3773286 1.4150001
-0.43628913 0.3773286 1.4150001
-0.43230373 0.37706193 1.414
-0.42832357 0.37679529 1.4130001
-0.42464915 0.37679529 1.4130001
-0.42067677 0.37652862 1.4120001
-0.41641426 0.37599531 1.4100001
-0.41274765 0.37599531 1.4100001
-0.40879086 0.37572861 1.409
-0.40455174 0.37519529 1.4070001
-0.400608 0.37492862 1.406
-0.39638713 0.37439531 1.404
-0.39217663 0.37386197 1.4020001
-0.38797656 0.37332866 1.4000001
-0.38378689 0.37279534 1.3980001
-0.37960756 0.372262 1.396
-0.37597737 0.372262 1.396
-0.37208042 0.37199536 1.3950001
-0.36818862 0.37172866 1.3940001
-0.3643021 0.37146199 1.393
-0.36067966 0.37146199 1.393
-0.35731357 0.37172866 1.3940001
-0.35394228 0.37199536 1.3950001
-0.35056573 0.372262 1.396
-0.34693551 0.372262 1.396
-0.34330529 0.372262 1.396
-0.33967507 0.372262 1.396
-0.33556339 0.37172866 1.3940001
-0.33122399 0.37092867 1.391
-0.32737127 0.37066203 1.3900001
-0.32282495 0.36959535 1.386
-0.3187601 0.36906204 1.3840001
-0.31402248 0.36772874 1.3790001
-0.31021133 0.36746204 1.378
-0.49808767 0.61119235 2.2920001
-0.49212742 0.61119235 2.2920001
-0.48637936 0.61145902 2.2930002
-0.47413105 0.60345906 2.263
-0.46721166 0.60212582 2.2580001
-0.46031827 0.60079247 2.253
-0.45103034 0.59625918 2.2360001
-0.43924233 0.58825928 2.2060001
-0.43330926 0.58799267 2.2050002
-0.42524832 0.58479267 2.1930001
-0.41916293 0.58425939 2.1910002
-0.41327658 0.58399266 2.1900001
-0.40795386 0.584526 2.1920002
-0.40243715 0.58479267 2.1930001
-0.40397072 0.59545916 2.233
-0.40799519 0.61919224 2.322
-0.40922746 0.63039207 2.3640001
-0.41143489 0.6434586 2.4130001
-0.40599957 0.64479196 2.4180002
-0.40450555 0.65252513 2.447
-0.39814222 0.65252513 2.447
-0.39177892 0.65252513 2.447
-0.38525814 0.65225852 2.4460001
-0.37641892 0.6479919 2.4300001
-0.36492151 0.63892531 2.3960001
-0.35973874 0.64079195 2.4030001
-0.34584045 0.62692547 2.3510001
-0.33510271 0.61839223 2.319
-0.32836276 0.61705893 2.3140001
-0.32109159 0.61465895 2.3050001
-0.31455073 0.61359233 2.3010001
-0.30762839 0.61172569 2.2940001
-0.30126849 0.61092567 2.2910001
-0.29479522 0.60985905 2.2870002
-0.28846911 0.60905904 2.2840002
-0.27758169 0.59839255 2.2440002
-0.2693243 0.59305924 2.2240002
-0.26377788 0.59359252 2.2260001
-0.25439644 0.58532602 2.1950002
-0.23849164 0.56132627 2.105
-0.20508489 0.51839352 1.9440001
-0.19529642 0.506127 1.8980001
-0.18594776 0.4943938 1.8540001
-0.14691444 0.44879436 1.6830001
-0.14245318 0.44852769 1.682
-0.13545229 0.43999448 1.6500001
-0.13068457 0.43839449 1.6440001
-0.12617877 0.4375945 1.641
-0.12168855 0.43679455 1.6380001
-0.11828929 0.43999448 1.6500001
-0.11282403 0.43546122 1.6330001
-0.1084445 0.43492788 1.631
-0.1040754 0.43439457 1.6290001
-0.099594109 0.43332791 1.6250001
-0.095427059 0.43359455 1.626
-0.091423079 0.43466124 1.6300001
-0.087612242 0.43679455 1.6380001
-0.083607137 0.43812785 1.6430001
-0.079527743 0.4391945 1.6470001
-0.07538186 0.43999448 1.6500001
-0.071263455 0.44106114 1.654
-0.067124248 0.44212779 1.6580001
-0.062964238 0.44319445 1.6620001
-0.058818713 0.44452775 1.6670001
-0.054712545 0.44639438 1.674
-0.05044964 0.4471944 1.677
-0.046171132 0.44799438 1.6800001
-0.041852139 0.44852769 1.682
-0.037500463 0.44879436 1.6830001
-0.033143587 0.44906107 1.6840001
-0.028764429 0.44906107 1.6840001
-0.024399748 0.44932771 1.6850001
-0.020029869 0.44959438 1.6860001
-0.015682627 0.450661 1.6900001
-0.011314582 0.45172769 1.6940001
-0.006929812 0.45306101 1.6990001
-0.0025205151 0.45466095 1.705
0.0019199863 0.45626095 1.7110001
0.0063842484 0.4573276 1.715
0.01090093 0.45972759 1.7240001
0.015401953 0.4602609 1.7260001
0.020074716 0.46452752 1.7420001
0.071916766 0.54905975 2.059
0.099311501 0.55252641 2.072
0.10469963 0.55252641 2.072
0.11024716 0.55332637 2.075
0.11592176 0.55465972 2.0800002
0.12156402 0.55572635 2.0840001
0.12820201 0.56105965 2.1040001
0.13462636 0.5650596 2.1190002
0.14185618 0.57199287 2.1450002
0.14777781 0.57332617 2.1500001
0.15536615 0.58079273 2.1780002
0.16147353 0.58239269 2.184
0.16745907 0.58345938 2.1880002
0.17338628 0.58425939 2.1910002
0.17932904 0.58505929 2.194
0.18520312 0.58559269 2.1960001
0.19108759 0.58612603 2.1980002
0.19689292 0.58639264 2.1990001
0.20270345 0.58665931 2.2
0.2086139 0.58719265 2.2020001
0.21443744 0.58745933 2.2030001
0.22046605 0.58825928 2.2060001
0.22640774 0.58879262 2.2080002
0.2325701 0.58985931 2.2120001
0.23875323 0.59092593 2.2160001
0.24484687 0.59172595 2.2190001
0.25118199 0.59305924 2.2240002
0.25754309 0.59439254 2.2290001
0.26381207 0.59545916 2.233
0.27022257 0.59679252 2.2380002
0.2766591 0.59812582 2.243
0.2829957 0.5991925 2.2470002
0.28935307 0.60025918 2.2510002
0.29586241 0.60159242 2.256
0.30199653 0.60212582 2.2580001
0.30827737 0.60292578 2.2610002
0.31429595 0.60319245 2.2620001
0.32046127 0.60372579 2.2640002
0.32649282 0.6039924 2.2650001
0.33223614 0.60372579 2.2640002
0.33797416 0.60345906 2.263
0.34370705 0.60319245 2.2620001
0.34912559 0.60239244 2.2590001
0.35452861 0.60159242 2.256
0.3597562 0.6005258 2.2520001
0.36317715 0.59652585 2.237
0.36899439 0.59652585 2.237
0.37514669 0.59705919 2.2390001
0.37892726 0.5938592 2.227
0.38540953 0.59492588 2.2310002
0.3922632 0.59652585 2.237
0.39914814 0.59812582 2.243
0.40588373 0.59945917 2.2480001
0.41209584 0.59999245 2.25
0.42612004 0.61172569 2.2940001
0.44037306 0.62345886 2.3380001
0.44664392 0.62372553 2.3390002
0.46273193 0.62905884 2.3590002
0.46886641 0.62905884 2.3590002
0.64907938 0.80745655 3.0280001
0.69513851 0.85438931 3.2040002
0.70412904 0.85518932 3.2070003
0.71180218 0.85438931 3.2040002
0.72013402 0.85438931 3.2040002
0.72801113 0.85385597 3.2020001
0.7354179 0.85278934 3.1980002
0.74326903 0.852256 3.1960001
0.75110978 0.85172266 3.1940002
0.7591778 0.85145599 3.1930001
0.76748103 0.85145599 3.1930001
0.77602732 0.85172266 3.1940002
0.78457868 0.85198933 3.1950002
0.79313529 0.852256 3.1960001
0.80947077 0.86078924 3.2280002
0.81786507 0.86078924 3.2280002
0.82600343 0.86052257 3.2270002
0.84396195 0.8703891 3.2640002
0.85271102 0.87065572 3.2650001
0.86911458 0.87865561 3.2950001
0.87768298 0.87865561 3.2950001
0.89969999 0.89198887 3.3450003
0.90894163 0.89252216 3.3470001
0.91846776 0.89332211 3.3500001
0.92800963 0.89412212 3.3530002
0.937567 0.89492214 3.3560002
0.94685811 0.89545548 3.3580003
0.95587504 0.89572215 3.3590002
0.96460986 0.89572215 3.3590002
0.96291304 0.88612223 3.3230002
0.96102893 0.87652236 3.2870002
0.95423794 0.86265588 3.2350001
0.94464761 0.83918947 3.1470001
0.95252842 0.8389228 3.1460001
0.94757831 0.8274563 3.1030002
0.95533961 0.82718968 3.1020002
0.96309555 0.82692295 3.1010001
0.97022003 0.82612294 3.098
0.9785921 0.82638967 3.0990002
0.98728752 0.82692295 3.1010001
0.99631447 0.82772297 3.1040001
1.0050335 0.82825631 3.1060002
1.0255052 0.83838946 3.1440001
1.0340099 0.83865619 3.1450002
1.0421883 0.83865619 3.1450002
1.0510346 0.83918947 3.1470001
1.070662 0.84825605 3.1810002
1.0874134 0.85492259 3.2060001
1.0978012 0.85652262 3.2120001
1.116141 0.86425585 3.2410002
1.1280389 0.8669225 3.2510002
1.1406879 0.87012243 3.2630002
1.1646693 0.88185561 3.3070002
1.1739786 0.88238895 3.3090003
1.1836556 0.88318896 3.3120003
1.1926283 0.88345563 3.3130002
1.2019687 0.88398892 3.3150001
1.2105892 0.88398892 3.3150001
1.2188419 0.88372225 3.3140001
1.2274598 0.88372225 3.3140001
1.2233962 0.87465572 3.2800002
1.2315501 0.87438899 3.279
1.2412114 0.87518901 3.2820001
1.2364186 0.86585581 3.2470002
1.2460124 0.86665583 3.2500002
1.2540778 0.8663891 3.2490001
1.2617496 0.86585581 3.2470002
1.2701932 0.86585581 3.2470002
1.2790307 0.86612248 3.2480001
1.2886661 0.8669225 3.2510002
1.2983172 0.86772245 3.2540002
1.3079839 0.86852247 3.2570002
1.3176661 0.86932248 3.2600002
1.3265502 0.86958909 3.2610002
1.3342116 0.86905575 3.2590001
1.3414505 0.86825573 3.256
1.3486738 0.86745584 3.2530003
1.3554642 0.8663891 3.2490001
1.362234 0.86532247 3.2450001
1.3694052 0.86452252 3.2420001
1.3769859 0.86398917 3.2400002
1.3849838 0.8637225 3.2390001
1.3929764 0.86345583 3.2380002
1.4009639 0.86318922 3.2370002
1.4093815 0.86318922 3.2370002
1.4177992 0.86318922 3.2370002
1.426217 0.86318922 3.2370002
1.4346346 0.86318922 3.2370002
1.4426063 0.86292249 3.2360001
1.4496763 0.86212248 3.233
1.4761236 0.87278908 3.2730002
1.4846349 0.87278908 3.2730002
1.4926898 0.87252235 3.2720001
1.500281 0.87198907 3.2700002
1.5041704 0.86932248 3.2600002
1.5121839 0.86905575 3.2590001
1.5211253 0.86932248 3.2600002
1.5319488 0.87065572 3.2650001
1.5258135 0.86238921 3.2340002
1.5323256 0.86132258 3.2300003
1.5259379 0.85305595 3.1990001
1.5332977 0.85252267 3.1970003
1.541129 0.852256 3.1960001
1.5489552 0.85198933 3.1950002
1.5450784 0.84532273 3.1700001
1.553812 0.84558946 3.1710002
1.5551615 0.84185612 3.1570001
1.5594094 0.83972281 3.1490002
1.5651091 0.83838946 3.1440001
-1.1124053 0.55225998 2.0510001
-1.1059921 0.55172139 2.049
-1.0995895 0.55118293 2.0470002
-1.0931972 0.5506444 2.0450001
-1.0830915 0.54822099 2.036
-1.0719739 0.54525912 2.0250001
-1.0661813 0.54498988 2.0240002
-1.0603937 0.54472053 2.023
-1.055133 0.54472053 2.023
-1.0503914 0.54498988 2.0240002
-1.0466771 0.54579765 2.0270002
-1.0408922 0.54552835 2.026
-1.0351126 0.54525912 2.0250001
-1.0293381 0.54498988 2.0240002
-1.0235687 0.54472053 2.023
-1.0137779 0.54229724 2.0140002
-1.0070382 0.54148942 2.0110002
-1.0008123 0.54095089 2.0090001
-0.99509251 0.54068166 2.0080001
-0.99085665 0.54122013 2.01
-0.99053335 0.54391277 2.02
-0.98430496 0.54337424 2.0180001
-0.97760183 0.54256648 2.0150001
-0.97525728 0.54418206 2.0210001
-0.97144163 0.54498988 2.0240002
-0.96904254 0.54660547 2.0300002
-0.9666121 0.54822099 2.036
-0.96603918 0.55091363 2.046
-0.96400565 0.55279851 2.0530002
-0.96567124 0.55683744 2.0680001
-0.96400851 0.55899161 2.0760002
-0.96276569 0.5614149 2.085
-0.96147615 0.5638383 2.0940001
-0.95877022 0.56545389 2.1000001
-0.95467114 0.56626171 2.1030002
-0.95371592 0.56895435 2.1130002
