# .PCD v0.7 - Point Cloud Data file format
VERSION 0.7
FIELDS x y z
SIZE 4 4 4
TYPE F F F
COUNT 1 1 1
WIDTH 1527
HEIGHT 1
VIEWPOINT 0 0 0 1 0 0 0
POINTS 1527
DATA ascii
-1.550423 0.51814425 3.3420002
-1.5412691 0.51798916 3.3410001
-1.5330378 0.51814425 3.3420002
-1.5362041 0.52217531 3.3680003
-1.5283508 0.52248538 3.3700001
-1.5204872 0.52279544 3.3720002
-1.5121647 0.52295047 3.3730001
-1.5033915 0.52295047 3.3730001
-1.4959476 0.52341563 3.3760002
-1.4849638 0.52264041 3.3710001
-1.470503 0.52062488 3.3580003
-1.4635099 0.52124506 3.3620002
-1.4547652 0.52124506 3.3620002
-1.4473108 0.52171016 3.3650002
-1.4398409 0.52217531 3.3680003
-1.4319303 0.52248538 3.3700001
-1.4341447 0.52651638 3.3960001
-1.4261512 0.5268265 3.3980002
-1.4198153 0.52775669 3.404
-1.423811 0.53256297 3.4350002
-1.4132289 0.53194284 3.4310002
-1.4043047 0.53194284 3.4310002
-1.3953805 0.53194284 3.4310002
-1.3856481 0.53163272 3.4290001
-1.3767292 0.53163272 3.4290001
-1.3674113 0.53147769 3.4280002
-1.3477951 0.5272916 3.4010003
-1.3275319 0.52279544 3.3720002
-1.31837 0.52264041 3.3710001
-1.2928967 0.51597369 3.3280001
-1.2641743 0.50791162 3.2760003
-1.2464544 0.50419062 3.2520001
-1.2269559 0.49969444 3.223
-1.1939971 0.48961687 3.1580002
-1.1677597 0.4821749 3.1100001
-1.1399076 0.47395781 3.0570002
-1.1193666 0.46868643 3.0230002
-1.0934873 0.46108946 2.9740002
-1.0806406 0.45891887 2.96
-1.0544552 0.45101184 2.9090002
-1.0382515 0.4472909 2.8850002
-1.021101 0.44310477 2.858
-1.0044457 0.43907374 2.832
-0.98792565 0.43504274 2.8060002
-0.96769643 0.42930621 2.7690001
-0.96118796 0.4296163 2.7710001
-0.95363629 0.42946127 2.7700002
-0.94608963 0.42930621 2.7690001
-0.93922651 0.42946127 2.7700002
-0.93269455 0.42977133 2.7720001
-0.92648602 0.43023646 2.7750001
-0.92092454 0.43101168 2.7800002
-0.91533703 0.43178686 2.7850001
-0.91004944 0.43271711 2.7910001
-0.90440738 0.43349233 2.7960002
-0.89873916 0.43426749 2.8010001
-0.89272666 0.43488765 2.8050001
-0.88637775 0.43535277 2.8080001
-0.87907404 0.43535277 2.8080001
-0.87145984 0.43519774 2.8070002
-0.86354303 0.43488765 2.8050001
-0.84678417 0.43008143 2.7740002
-0.83896351 0.42977133 2.7720001
-0.83115339 0.42946127 2.7700002
-0.81651217 0.42558527 2.7450001
-0.80111641 0.42124414 2.7170002
-0.7934649 0.42093405 2.7150002
-0.76062411 0.40713549 2.6260002
-0.71188438 0.38449961 2.48
-0.6185323 0.34341398 2.2150002
-0.59395903 0.33287123 2.1470001
-0.5749464 0.32527426 2.098
-0.5689466 0.3249642 2.0960002
-0.56322592 0.32480913 2.095
-0.55511433 0.32325873 2.085
-0.54310018 0.31938276 2.0600002
-0.5364368 0.31860754 2.0550001
-0.52282161 0.31364626 2.023
-0.51628059 0.31287107 2.0180001
-0.50824606 0.31116563 2.0070002
-0.50077009 0.30977026 1.9980001
-0.49160463 0.3072896 1.9820001
-0.48571309 0.30682451 1.9790001
-0.47959429 0.30620435 1.9750001
-0.47373655 0.30573922 1.9720001
-0.46789443 0.3052741 1.9690001
-0.46230292 0.30496401 1.9670001
-0.45648941 0.30449888 1.9640001
-0.4509213 0.30418882 1.9620001
-0.44559082 0.30403376 1.9610001
-0.44026557 0.30387872 1.96
-0.43516752 0.30387872 1.96
-0.42985007 0.30372369 1.9590001
-0.42475468 0.30372369 1.9590001
-0.41987345 0.30387872 1.96
-0.41329405 0.30279344 1.9530001
-0.40842327 0.3029485 1.9540001
-0.40334085 0.3029485 1.9540001
-0.40090802 0.30496401 1.9670001
-0.3957918 0.30496401 1.9670001
-0.39087415 0.30511904 1.9680001
-0.38555932 0.30496401 1.9670001
-0.38024965 0.30480897 1.9660001
-0.37456357 0.30434385 1.9630001
-0.36870492 0.30372369 1.9590001
-0.36286703 0.30310351 1.955
-0.35613492 0.30170816 1.9460001
-0.3508929 0.30155313 1.9450001
-0.34512267 0.30093297 1.9410001
-0.33972362 0.30062288 1.9390001
-0.33416241 0.30015776 1.9360001
-0.3286168 0.29969263 1.9330001
-0.32308677 0.29922751 1.9300001
-0.31757239 0.29876238 1.927
-0.30947837 0.29581663 1.9080001
-0.3038772 0.29519647 1.904
-0.30002382 0.29628175 1.9110001
-0.29443562 0.2956616 1.9070001
-0.28886828 0.29504144 1.9030001
-0.28332171 0.29442129 1.899
-0.27779597 0.29380113 1.8950001
-0.27229103 0.29318094 1.891
-0.26694828 0.29271585 1.8880001
-0.25731862 0.28744447 1.8540001
-0.25236014 0.28728941 1.853
-0.24273118 0.28170797 1.817
-0.23774312 0.28139791 1.8150001
-0.23276548 0.28108782 1.8130001
-0.22427623 0.27643663 1.7830001
-0.21976176 0.27659166 1.784
-0.15248865 0.21457559 1.3840001
-0.14921154 0.21504071 1.3870001
-0.1461288 0.21581592 1.3920001
-0.14209864 0.21519575 1.388
-0.13818909 0.21473064 1.3850001
-0.13439229 0.21442054 1.383
-0.13070048 0.21426551 1.3820001
-0.12682994 0.21380039 1.3790001
-0.12306436 0.21349031 1.3770001
-0.11922242 0.2130252 1.3740001
-0.11539609 0.21256007 1.3710001
-0.1115038 0.21193992 1.3670001
-0.1076323 0.21131974 1.363
-0.10385799 0.21085462 1.36
-0.1000993 0.21038951 1.3570001
-0.096356191 0.20992438 1.3540001
-0.092697263 0.20961432 1.3520001
-0.088982776 0.2091492 1.3490001
-0.085283898 0.20868407 1.3460001
-0.081600614 0.20821895 1.3430001
-0.077991106 0.20790887 1.3410001
-0.074336439 0.20744374 1.3380001
-0.070803292 0.2072887 1.337
-0.067224994 0.20697862 1.335
-0.063704863 0.20682359 1.3340001
-0.060144763 0.20651349 1.332
-0.056552529 0.20604838 1.3290001
-0.053055797 0.20589334 1.3280001
-0.049713675 0.20635846 1.3310001
-0.042178884 0.2034127 1.312
-0.038736783 0.20325767 1.3110001
-0.035272926 0.20294757 1.309
-0.031770788 0.20232742 1.3050001
-0.028376434 0.20232742 1.3050001
-0.024943795 0.20201734 1.3030001
-0.021538101 0.20186229 1.302
-0.018123668 0.20155221 1.3000001
-0.014708299 0.2010871 1.2970001
-0.011308535 0.20062198 1.294
-0.0079243788 0.20015685 1.291
-0.0045522922 0.1995367 1.2870001
-0.0012019487 0.19907157 1.284
0.0021277934 0.19814134 1.2780001
0.0087691769 0.19798629 1.2770001
0.012100169 0.19814134 1.2780001
0.015436364 0.19829637 1.279
0.033160634 0.29767713 1.9200001
0.038154624 0.29767713 1.9200001
0.043238509 0.29829729 1.9240001
0.048267979 0.29845232 1.9250001
0.053330325 0.29876238 1.927
0.058766391 0.30093297 1.9410001
0.063880764 0.30124304 1.9430001
0.068970054 0.3013981 1.9440001
0.074102633 0.30170816 1.9460001
0.078798115 0.30031279 1.937
0.083966173 0.30077791 1.9400001
0.08914984 0.30124304 1.9430001
0.09439759 0.30186322 1.9470001
0.099768318 0.30279344 1.9530001
0.10517025 0.30372369 1.9590001
0.11060341 0.30465394 1.9650002
0.11600889 0.30542913 1.9700001
0.12162483 0.30666944 1.978
0.12696195 0.30713457 1.9810001
0.13238138 0.30775473 1.9850001
0.13775231 0.30821985 1.988
0.14313884 0.30868497 1.9910001
0.14854099 0.3091501 1.9940001
0.15388165 0.30946016 1.9960001
0.1593921 0.31008032 2
0.16492337 0.31070051 2.0040002
0.17039056 0.31116563 2.0070002
0.17604832 0.31194082 2.0120001
0.18164201 0.31256098 2.016
0.18725649 0.31318113 2.02
0.19289182 0.31380132 2.0240002
0.19845003 0.31426644 2.0270002
0.20372233 0.31426644 2.0270002
0.20920084 0.31457648 2.029
0.21447834 0.31457648 2.029
0.21834783 0.31256098 2.016
0.22348063 0.31240594 2.0150001
0.22860822 0.31225091 2.0140002
0.23384671 0.31225091 2.0140002
0.2393226 0.31256098 2.016
0.24505153 0.31318113 2.02
0.25080132 0.31380132 2.0240002
0.25669837 0.31457648 2.029
0.2627506 0.31550673 2.0350001
0.26870227 0.31628194 2.0400002
0.27494863 0.31736723 2.0470002
0.28123137 0.31845251 2.0540001
0.28727147 0.3192277 2.059
0.29333764 0.32000291 2.0640001
0.29928508 0.32062307 2.0680001
0.3052533 0.32124323 2.072
0.31109241 0.32170835 2.075
0.31694713 0.32217348 2.0780001
0.32235211 0.32217348 2.0780001
0.32775706 0.32217348 2.0780001
0.33316201 0.32217348 2.0780001
0.33856696 0.32217348 2.0780001
0.34380642 0.32201844 2.0770001
0.34904063 0.32186341 2.0760002
0.35580623 0.3231037 2.0840001
0.36088014 0.3227936 2.082
0.36594361 0.32248357 2.0800002
0.37099671 0.32217348 2.0780001
0.37622052 0.32201844 2.0770001
0.38143915 0.32186341 2.0760002
0.38702524 0.32201844 2.0770001
0.39261651 0.32217348 2.0780001
0.398213 0.32232848 2.079
0.40381473 0.32248357 2.0800002
0.40922487 0.32248357 2.0800002
0.41463503 0.32248357 2.0800002
0.41984323 0.32232848 2.079
0.42443261 0.32170835 2.075
0.42982975 0.32170835 2.075
0.43606591 0.32232848 2.079
0.33713436 0.22170743 1.4300001
0.32529646 0.20930421 1.35
0.32759008 0.20852903 1.345
0.33010384 0.20790887 1.3410001
0.33334303 0.20775382 1.34
0.33632571 0.20744374 1.3380001
0.33929798 0.20713367 1.3360001
0.34277299 0.20713367 1.3360001
0.34598878 0.20697862 1.335
0.34919938 0.20682359 1.3340001
0.35214043 0.20651349 1.332
0.35533807 0.20635846 1.3310001
0.3582609 0.20604838 1.3290001
0.36144546 0.20589334 1.3280001
0.36435014 0.20558326 1.3260001
0.36724436 0.2052732 1.3240001
0.37012812 0.20496309 1.322
0.37328419 0.20480807 1.3210001
0.37643495 0.20465302 1.3200001
0.37929276 0.20434295 1.3180001
0.38214019 0.20403287 1.3160001
0.38527015 0.20387782 1.3150001
0.38809934 0.20356774 1.3130001
0.39121634 0.2034127 1.312
0.39432812 0.20325767 1.3110001
0.39713126 0.20294757 1.309
0.40023008 0.20279254 1.3080001
0.40332362 0.20263749 1.307
0.40672317 0.20263749 1.307
0.40980899 0.20248246 1.3060001
0.41288954 0.20232742 1.3050001
0.41596487 0.20217237 1.304
0.41903508 0.20201734 1.3030001
0.42210001 0.20186229 1.302
0.42515978 0.20170726 1.3010001
0.42788491 0.20139717 1.299
0.43059966 0.2010871 1.2970001
0.43330401 0.20077702 1.2950001
0.43633515 0.20062198 1.294
0.66532797 0.30356863 1.9580001
0.66905117 0.3029485 1.9540001
0.68964416 0.30759969 1.9840001
0.69550496 0.30790976 1.9860001
0.70243466 0.30868497 1.9910001
0.71792006 0.31318113 2.02
0.72424817 0.31364626 2.023
0.73564047 0.31628194 2.0400002
0.74276263 0.31705713 2.0450001
0.74991083 0.31783235 2.0500002
0.75634819 0.31829748 2.0530002
0.76354319 0.31907266 2.0580001
0.77674192 0.32232848 2.079
0.78403056 0.3231037 2.0840001
0.7883147 0.3226386 2.0810001
0.7983045 0.32449907 2.0930002
0.80566847 0.32527426 2.098
0.81460506 0.32666963 2.1070001
0.82242078 0.32759988 2.1130002
0.82948405 0.32822004 2.1170001
0.83538485 0.32837507 2.118
0.83970273 0.32790995 2.115
0.84440476 0.32759988 2.1130002
0.84829187 0.32697973 2.1090002
0.85215807 0.32635954 2.105
0.85518879 0.32542932 2.0990002
0.86187834 0.32589442 2.102
0.86610794 0.32542932 2.0990002
0.86990649 0.32480913 2.095
0.87452006 0.32449907 2.0930002
0.87197584 0.32155332 2.0740001
0.88794625 0.32542932 2.0990002
0.89510828 0.32604948 2.1030002
0.90271944 0.32682467 2.108
0.91035664 0.32759988 2.1130002
0.91758633 0.32822004 2.1170001
0.92483693 0.3288402 2.1210001
0.92991507 0.32868516 2.1200001
0.93587047 0.3288402 2.1210001
0.94227505 0.32915029 2.1230001
0.94868982 0.32946035 2.125
0.95646226 0.33023557 2.1300001
0.96968049 0.33287123 2.1470001
0.97889888 0.33411157 2.1550002
0.98541772 0.33442163 2.1570001
0.99102825 0.33442163 2.1570001
0.99663866 0.33442163 2.1570001
1.0013199 0.33411157 2.1550002
0.99290752 0.32946035 2.125
0.99702525 0.32899526 2.1220002
0.99876493 0.32775491 2.1140001
0.98716158 0.32217348 2.0780001
0.98587942 0.32000291 2.0640001
0.99028736 0.31969282 2.062
0.97150791 0.31194082 2.0120001
0.97479939 0.31132066 2.0080001
0.97758192 0.31054544 2.003
0.9646374 0.30480897 1.9660001
0.96777803 0.30418882 1.9620001
0.97089779 0.30356863 1.9580001
0.97399676 0.3029485 1.9540001
0.97757602 0.30248338 1.9510001
0.9781177 0.30108801 1.9420002
0.98367512 0.30124304 1.9430001
0.99839741 0.30418882 1.9620001
1.0029892 0.30403376 1.9610001
-1.5732471 0.47118956 2.9890001
-1.5612825 0.46992844 2.9810002
-1.5509231 0.46914023 2.9760001
-1.5385157 0.46772149 2.9670002
-1.5287346 0.4670909 2.9630001
-1.5194876 0.46661797 2.96
-1.5112779 0.46646035 2.9590001
-1.5020568 0.46598741 2.9560001
-1.4938627 0.46582979 2.9550002
-1.4861767 0.46582979 2.9550002
-1.4779904 0.46567214 2.9540002
-1.4713023 0.46598741 2.9560001
-1.4655941 0.46661797 2.96
-1.4583876 0.46677563 2.9610002
-1.4688134 0.47260836 2.9980001
-1.4751481 0.47717994 3.0270002
-1.4818166 0.48190919 3.0570002
-1.4965253 0.48931831 3.1040001
-1.503317 0.49420521 3.1350002
-1.5185322 0.50192964 3.1840003
-1.5339667 0.5098117 3.2340002
-1.5420651 0.51532912 3.2690001
-1.5499817 0.52084655 3.3040001
-1.5609819 0.52746749 3.3460002
-1.5513508 0.52715218 3.3440001
-1.5624897 0.53393078 3.3870001
-1.5541388 0.53408843 3.3880002
-1.5457826 0.53424609 3.3890002
-1.5433168 0.53645301 3.4030001
-1.5394257 0.53818709 3.4140003
-1.5309939 0.53834474 3.4150002
-1.5207744 0.53787184 3.4120002
-1.4972769 0.53266966 3.3790002
-1.4862853 0.53188145 3.3740001
-1.4718167 0.52983207 3.3610001
-1.4635099 0.52998978 3.3620002
-1.4547652 0.52998978 3.3620002
-1.4468807 0.53030503 3.3640001
-1.4394133 0.53077793 3.3670001
-1.4315054 0.53109324 3.3690002
-1.4341447 0.53534955 3.3960001
-1.4261512 0.53566486 3.3980002
-1.4331627 0.54165518 3.4360001
-1.423811 0.54149753 3.4350002
-1.4144646 0.54133993 3.4340003
-1.4055326 0.54133993 3.4340003
-1.3970072 0.54149753 3.4350002
-1.3872645 0.54118228 3.4330001
-1.3779337 0.54102463 3.4320002
-1.368209 0.54070932 3.4300001
-1.3481914 0.53629541 3.4020002
-1.34013 0.53661066 3.404
-1.31837 0.53140849 3.3710001
-1.2944509 0.52526051 3.3320003
-1.272664 0.51990068 3.2980001
-1.2621692 0.51911253 3.2930002
-1.2273366 0.50823528 3.2240002
-1.2060959 0.50287545 3.1900001
-1.1801507 0.49546632 3.1430001
-1.1544502 0.4880572 3.0960002
-1.1282535 0.48033276 3.0470002
-1.111136 0.47639173 3.0220001
-1.0810057 0.46677563 2.9610002
-1.0656919 0.46346515 2.9400001
-1.0483282 0.45920885 2.9130001
-1.0307477 0.45479491 2.8850002
-1.0136672 0.45053858 2.858
-0.99531925 0.44565171 2.8270001
-0.98726708 0.4453364 2.825
-0.9795723 0.44517878 2.8240001
-0.97188276 0.44502115 2.8230002
-0.9573648 0.44171065 2.802
-0.95109397 0.44218358 2.8050001
-0.94480747 0.44265652 2.8080001
-0.93850529 0.44312945 2.8110001
-0.93218762 0.44360235 2.8140001
-0.92585438 0.44407529 2.8170002
-0.91917932 0.44439059 2.8190002
-0.92122746 0.44896215 2.848
-0.91414064 0.44911981 2.8490002
-0.90704846 0.44927746 2.8500001
-0.89963555 0.44927746 2.8500001
-0.8915965 0.44896215 2.848
-0.88636184 0.45006564 2.855
-0.87862808 0.44990802 2.8540001
-0.85838395 0.44328707 2.812
-0.84955651 0.44249889 2.8070002
-0.84285551 0.44281414 2.809
-0.81978416 0.43445915 2.756
-0.80848771 0.4322522 2.7420001
-0.80106342 0.43209457 2.7410002
-0.77047223 0.41932562 2.6600001
-0.72307938 0.39709818 2.5190001
-0.62411726 0.35232812 2.2350001
-0.60447162 0.34444606 2.1850002
-0.5820716 0.33482993 2.1240001
-0.57491833 0.33388406 2.118
-0.57021582 0.33435699 2.1210001
-0.55511433 0.32868192 2.085
-0.55074573 0.32931247 2.089
-0.53539264 0.32332212 2.0510001
-0.53238392 0.32474092 2.0600002
-0.51628059 0.31811997 2.0180001
-0.50900573 0.31685883 2.01
-0.501522 0.31544006 2.0010002
-0.4950771 0.31465185 1.9960001
-0.48669481 0.31260252 1.983
-0.48056561 0.31197196 1.9790001
-0.47469747 0.31149903 1.9760001
-0.46884492 0.3110261 1.973
-0.46324304 0.31071082 1.9710001
-0.45765156 0.31039554 1.9690001
-0.45207044 0.31008026 1.9670001
-0.44672695 0.30992261 1.9660001
-0.44138873 0.30976498 1.9650002
-0.43605563 0.30960733 1.9640001
-0.43094718 0.30960733 1.9640001
-0.42583877 0.30960733 1.9640001
-0.42094457 0.30976498 1.9650002
-0.41604513 0.30992261 1.9660001
-0.40925935 0.30866149 1.9580001
-0.40437293 0.30881914 1.9590001
-0.39927748 0.30881914 1.9590001
-0.39398086 0.30866149 1.9580001
-0.39107278 0.31039554 1.9690001
-0.38575533 0.31023788 1.9680001
-0.38024965 0.30992261 1.9660001
-0.37456357 0.3094497 1.9630001
-0.36870492 0.30881914 1.9590001
-0.36268142 0.30803093 1.9540001
-0.35503685 0.30582395 1.9400001
-0.35035169 0.30613923 1.9420002
-0.34458923 0.30550867 1.9380001
-0.3393732 0.30535102 1.937
-0.33381721 0.30487812 1.9340001
-0.32827678 0.30440518 1.9310001
-0.31722769 0.29873011 1.8950001
-0.31180432 0.29825717 1.8920001
-0.30882955 0.30014884 1.904
-0.30323881 0.29951829 1.9000001
-0.29374388 0.2949467 1.8710001
-0.28856853 0.29463142 1.8690001
-0.28340361 0.29431614 1.8670001
-0.27809989 0.29384321 1.8640001
-0.27295837 0.29352793 1.8620001
-0.26768327 0.293055 1.8590001
-0.26242375 0.29258209 1.8560001
-0.25704104 0.29195154 1.8520001
-0.24868301 0.28785285 1.8260001
-0.2391243 0.28217778 1.7900001
-0.23394448 0.28154722 1.7860001
-0.22891389 0.28107429 1.7830001
-0.22427623 0.28107429 1.7830001
-0.21508074 0.27524155 1.7460001
-0.20137496 0.26326081 1.6700001
-0.15204793 0.21754488 1.3800001
-0.1484585 0.21754488 1.3800001
-0.14549893 0.2184907 1.386
-0.14117727 0.21738723 1.3790001
-0.13769022 0.21754488 1.3800001
-0.13400359 0.21738723 1.3790001
-0.13022763 0.21707195 1.3770001
-0.12646206 0.21675667 1.3750001
-0.12270687 0.21644138 1.373
-0.11887535 0.21596846 1.3700001
-0.11505942 0.21549554 1.3670001
-0.11117753 0.21486497 1.363
-0.10731644 0.21423441 1.3590001
-0.10355254 0.21376148 1.3560001
-0.09980423 0.21328856 1.353
-0.096071526 0.21281563 1.35
-0.092354447 0.21234272 1.3470001
-0.088652968 0.21186979 1.3440001
-0.084967092 0.21139686 1.3410001
-0.081357583 0.21108158 1.3390001
-0.077700309 0.21060866 1.3360001
-0.074058652 0.21013573 1.3330001
-0.070485555 0.20982045 1.3310001
-0.066922866 0.20950517 1.3290001
-0.063370571 0.20918988 1.327
-0.059873845 0.20903225 1.3260001
-0.056382317 0.2088746 1.325
-0.052895993 0.20871697 1.3240001
-0.049377516 0.20840168 1.322
-0.045452453 0.20619471 1.3080001
-0.04208244 0.20635234 1.309
-0.038618591 0.20603706 1.307
-0.035138194 0.20556413 1.304
-0.031746443 0.20556413 1.304
-0.028354689 0.20556413 1.304
-0.024943795 0.2054065 1.3030001
-0.021521559 0.20509122 1.3010001
-0.018109726 0.20477593 1.299
-0.014708299 0.20446065 1.2970001
-0.011317275 0.20414537 1.2950001
-0.0079305172 0.20367244 1.2920001
-0.004559366 0.20319952 1.289
-0.0012038209 0.20272659 1.286
0.002137783 0.20241131 1.284
0.0054775146 0.20241131 1.284
0.008803512 0.20209603 1.2820001
0.012138042 0.20209603 1.2820001
0.015484642 0.20225368 1.2830001
0.018865781 0.20272659 1.286
0.022227988 0.20288424 1.2870001
0.04319356 0.30298641 1.9220001
0.048142608 0.30267113 1.9200001
0.053164274 0.30282876 1.9210001
0.058191139 0.30298641 1.9220001
0.063256092 0.30330169 1.9240001
0.068366915 0.3037746 1.927
0.073455282 0.3040899 1.9290001
0.078635402 0.30472046 1.9330001
0.083749771 0.30503574 1.9350001
0.0895169 0.307558 1.9510001
0.09483394 0.30834621 1.9560001
0.09961506 0.30740035 1.95
0.1050092 0.30834621 1.9560001
0.11054712 0.30960733 1.9640001
0.11595 0.31039554 1.9690001
0.12137888 0.31118375 1.9740001
0.12702605 0.31244487 1.9820001
0.13251476 0.31323308 1.9870001
0.13802949 0.31402129 1.9920001
0.14342642 0.31449422 1.9950001
0.14883897 0.31496716 1.9980001
0.15434423 0.31559771 2.0020001
0.15987028 0.31622827 2.006
0.16541715 0.31685883 2.01
0.17089993 0.31733173 2.013
0.17657332 0.31811997 2.0180001
0.18218261 0.31875053 2.0220001
0.1878127 0.31938109 2.026
0.19336832 0.31985402 2.029
0.19884163 0.3201693 2.0310001
0.20422484 0.32032692 2.0320001
0.20961325 0.32048455 2.033
0.21342127 0.3182776 2.0190001
0.21845616 0.31796235 2.0170002
0.22348063 0.31764704 2.0150001
0.22860822 0.31748942 2.0140002
0.23384671 0.31748942 2.0140002
0.2393226 0.31780466 2.016
0.24505153 0.31843522 2.02
0.25092521 0.31922346 2.0250001
0.25682491 0.32001168 2.0300002
0.2628797 0.32095748 2.036
0.26896569 0.32190335 2.0420001
0.27521724 0.32300684 2.049
0.2815052 0.3241103 2.056
0.28769004 0.32505617 2.062
0.293764 0.32584438 2.0670002
0.29971924 0.32647493 2.0710001
0.30569527 0.32710549 2.075
0.31154218 0.32757843 2.0780001
0.31740472 0.32805136 2.0810001
0.32281747 0.32805136 2.0810001
0.32823026 0.32805136 2.0810001
0.33364299 0.32805136 2.0810001
0.33905575 0.32805136 2.0810001
0.34430301 0.32789373 2.0800002
0.34971315 0.32789373 2.0800002
0.35665989 0.32931247 2.089
0.36157349 0.32883957 2.0860002
0.36664736 0.32852429 2.0840001
0.37188941 0.32836667 2.0830002
0.37694505 0.32805136 2.0810001
0.38235781 0.32805136 2.0810001
0.38777059 0.32805136 2.0810001
0.39356121 0.32836667 2.0830002
0.39897919 0.32836667 2.0830002
0.40459129 0.32852429 2.0840001
0.41001183 0.32852429 2.0840001
0.4150337 0.32820898 2.082
0.42024714 0.32805136 2.0810001
0.4248417 0.3274208 2.0770001
0.43190122 0.32868192 2.085
0.43627569 0.32789373 2.0800002
0.43510297 0.32300684 2.049
0.43957272 0.32237628 2.0450001
0.43749511 0.31701648 2.0110002
0.43634138 0.31244487 1.9820001
0.32941261 0.21786016 1.3820001
0.32710296 0.21171214 1.3430001
0.32961151 0.21108158 1.3390001
0.33284551 0.21092394 1.3380001
0.33607435 0.21076629 1.337
0.33904397 0.21045101 1.335
0.34251639 0.21045101 1.335
0.34572962 0.21029338 1.3340001
0.3489376 0.21013573 1.3330001
0.35187608 0.20982045 1.3310001
0.35507107 0.20966281 1.33
0.3582609 0.20950517 1.3290001
0.36117327 0.20918988 1.327
0.36407533 0.2088746 1.325
0.36724436 0.20871697 1.3240001
0.37012812 0.20840168 1.322
0.37300158 0.2080864 1.3200001
0.3758646 0.20777112 1.3180001
0.37871718 0.20745584 1.3160001
0.3818498 0.20729819 1.3150001
0.38468421 0.20698291 1.3130001
0.3872126 0.20650998 1.3100001
0.39032179 0.20635234 1.309
0.39312497 0.20603706 1.307
0.39622113 0.20587943 1.3060001
0.39931211 0.20572178 1.3050001
0.40239787 0.20556413 1.304
0.40547845 0.2054065 1.3030001
0.40855381 0.20524885 1.302
0.41162398 0.20509122 1.3010001
0.41468892 0.20493357 1.3000001
0.41774869 0.20477593 1.299
0.42080325 0.20461829 1.2980001
0.42385256 0.20446065 1.2970001
0.42689672 0.204303 1.296
0.42960367 0.20398772 1.294
0.43230021 0.20367244 1.2920001
0.43566075 0.20367244 1.2920001
0.69759369 0.31875053 2.0220001
0.68929648 0.31260252 1.983
0.69515479 0.3129178 1.9850001
0.70172906 0.31354836 1.9890001
0.7058363 0.31307542 1.9860001
0.72603828 0.31969637 2.0280001
0.73383737 0.32079986 2.0350001
0.74058336 0.32143041 2.039
0.74552107 0.32127279 2.0380001
0.7519272 0.32174572 2.0410001
0.75909096 0.32253391 2.046
0.7644127 0.32253391 2.046
0.78290194 0.32805136 2.0810001
0.78793591 0.32789373 2.0800002
0.79944873 0.33041599 2.0960002
0.80682051 0.33120418 2.1010001
0.81460506 0.33215004 2.1070001
0.82242078 0.33309588 2.1130002
0.82948405 0.33372644 2.1170001
0.83735698 0.3346723 2.1230001
0.84009981 0.33356881 2.1160002
0.84480435 0.3332535 2.1140001
0.8490963 0.3327806 2.1110001
0.8529678 0.33215004 2.1070001
0.85641098 0.3313618 2.102
0.86269844 0.33167711 2.1040001
0.86734575 0.3313618 2.102
0.87198269 0.33104655 2.1000001
0.87744486 0.33104655 2.1000001
0.88669097 0.33246532 2.1090002
0.88879222 0.33120418 2.1010001
0.8959595 0.33183473 2.105
0.90314776 0.33246532 2.1090002
0.91078746 0.3332535 2.1140001
0.91801977 0.33388406 2.118
0.92047656 0.3327806 2.1110001
0.93079239 0.33451468 2.1220002
0.95043141 0.33955917 2.154
0.95780939 0.34018973 2.158
0.96386892 0.34034738 2.1590002
0.95825845 0.33640635 2.1340001
0.97329372 0.33971682 2.1550002
0.98117006 0.340505 2.1600001
0.98724508 0.34066263 2.161
0.99240661 0.340505 2.1600001
0.99756277 0.34034738 2.1590002
1.0022491 0.34003207 2.1570001
1.0022526 0.33814043 2.1450002
0.99702525 0.33451468 2.1220002
0.99734753 0.3327806 2.1110001
0.98573637 0.32710549 2.075
0.98587942 0.32537147 2.0640001
0.96435362 0.31654355 2.0080001
0.9719907 0.31733173 2.013
0.95683742 0.31071082 1.9710001
0.96001184 0.31008026 1.9670001
0.9631654 0.3094497 1.9630001
0.96580499 0.30866149 1.9580001
0.96841848 0.30787328 1.9530001
0.96502441 0.30519339 1.9360001
0.96855688 0.30472046 1.9330001
0.97257733 0.30440518 1.9310001
0.98468763 0.30661213 1.9450001
0.98109591 0.30393225 1.9280001
0.98662215 0.3040899 1.9290001
-1.5737735 0.47912431 2.9900002
-1.5618062 0.47784236 2.9820001
-1.5514443 0.47704116 2.9770002
-1.537997 0.47527847 2.9660001
-1.5282186 0.47463751 2.9620001
-1.5194876 0.47431701 2.96
-1.5112779 0.47415677 2.9590001
-1.5020568 0.47367606 2.9560001
-1.4938627 0.47351581 2.9550002
-1.4861767 0.47351581 2.9550002
-1.4779904 0.47335559 2.9540002
-1.4877274 0.47896403 2.9890001
-1.4804482 0.47912431 2.9900002
-1.4839994 0.48280987 3.0130002
-1.49282 0.48825809 3.0470002
-1.485382 0.48841834 3.0480001
-1.5045989 0.49739191 3.1040001
-1.5196674 0.50508356 3.1520002
-1.5268137 0.51021129 3.1840003
-1.5423784 0.5182234 3.2340002
-1.550568 0.52383184 3.2690001
-1.5670666 0.53232473 3.3220003
-1.5724996 0.53713197 3.3520002
-1.5843079 0.54418266 3.3960001
-1.5754747 0.54418266 3.3960001
-1.5837104 0.55011159 3.4330001
-1.5743225 0.54995137 3.4320002
-1.5649395 0.5497911 3.4310002
-1.5551083 0.5494706 3.4290001
-1.5416802 0.54786819 3.4190001
-1.5327872 0.54786819 3.4190001
-1.5221114 0.54722726 3.4150002
-1.4990493 0.54209948 3.3830001
-1.4880475 0.54129827 3.3780003
-1.4810128 0.54193926 3.3820002
-1.4626393 0.53841394 3.3600001
-1.4543324 0.53857416 3.3610001
-1.4460205 0.53873444 3.3620002
-1.4385583 0.53921515 3.3650002
-1.4310806 0.53969586 3.3680003
-1.4227426 0.53985608 3.3690002
-1.4265708 0.54466337 3.3990002
-1.4189812 0.54514408 3.4020002
-1.423811 0.55043209 3.4350002
-1.4144646 0.55027187 3.4340003
-1.4059418 0.55043209 3.4350002
-1.397414 0.5505923 3.4360001
-1.3876686 0.55027187 3.4340003
-1.3779337 0.54995137 3.4320002
-1.368209 0.54963088 3.4300001
-1.3481914 0.54514408 3.4020002
-1.34013 0.54546458 3.404
-1.3179789 0.54001635 3.3700001
-1.2948393 0.53408736 3.3330002
-1.2861701 0.53408736 3.3330002
-1.2610193 0.52719694 3.2900002
-1.2360924 0.52030653 3.2470002
-1.2064741 0.51133299 3.1910002
-1.1809018 0.50396186 3.1450002
-1.1551958 0.49643043 3.098
-1.1286237 0.48841834 3.0480001
-1.112239 0.48473275 3.0250001
-1.0945138 0.48040622 2.9980001
-1.0762039 0.47575921 2.9690001
-1.0580449 0.47111216 2.9400001
-1.0400368 0.46646518 2.9110003
-1.0328199 0.46662539 2.9120002
-1.0086981 0.45909402 2.8650002
-1.0001976 0.45861331 2.8620002
-0.99171293 0.45813257 2.8590002
-0.98324376 0.45765182 2.8560002
-0.9747901 0.45717111 2.8530002
-0.9666912 0.45685062 2.8510001
-0.95860279 0.45653015 2.8490002
-0.95085847 0.45636988 2.848
-0.94311947 0.45620966 2.8470001
-0.94623172 0.46133742 2.8790002
-0.93972147 0.46181813 2.8820002
-0.93351912 0.46245909 2.8860002
-0.92729604 0.46310005 2.8900001
-0.92041552 0.46342057 2.8920002
-0.91289335 0.46342057 2.8920002
-0.904432 0.46293983 2.8890002
-0.8966071 0.46277961 2.8880002
-0.88847959 0.46245909 2.8860002
-0.87212056 0.45781207 2.8570001
-0.86166275 0.45620966 2.8470001
-0.84195542 0.44963974 2.8060002
-0.83346707 0.44899875 2.802
-0.81615388 0.4435505 2.7680001
-0.80106342 0.43922397 2.7410002
-0.77742386 0.43009016 2.684
-0.72996861 0.40749604 2.5430002
-0.6299814 0.36150646 2.256
-0.60336494 0.34948829 2.181
-0.58261967 0.340675 2.1260002
-0.57518983 0.33955333 2.1190002
-0.57021582 0.33987379 2.1210001
-0.55591303 0.33458579 2.0880001
-0.55180037 0.33538702 2.0930002
-0.53721994 0.32977852 2.0580001
-0.5326423 0.33025926 2.0610001
-0.51628059 0.32336885 2.0180001
-0.51001871 0.32272789 2.0140002
-0.501522 0.32064474 2.0010002
-0.49532515 0.32000375 1.9970001
-0.48743111 0.31824109 1.9860001
-0.48129413 0.31760013 1.9820001
-0.47541815 0.31711939 1.9790001
-0.46955782 0.31663865 1.9760001
-0.46394813 0.31631818 1.9740001
-0.45858124 0.31615794 1.973
-0.45298976 0.31583744 1.9710001
-0.44740865 0.31551698 1.9690001
-0.44228721 0.31551698 1.9690001
-0.43716577 0.31551698 1.9690001
-0.43182489 0.31535673 1.9680001
-0.42670605 0.31535673 1.9680001
-0.42180145 0.31551698 1.9690001
-0.4168916 0.31567723 1.9700001
-0.41030443 0.3145555 1.9630001
-0.40540501 0.31471574 1.9640001
-0.40009275 0.3145555 1.9630001
-0.39478573 0.31439528 1.9620001
-0.38908663 0.31391454 1.9590001
-0.38359919 0.31359407 1.9570001
-0.38024965 0.31503624 1.9660001
-0.37456357 0.3145555 1.9630001
-0.36870492 0.31391454 1.9590001
-0.36268142 0.31311333 1.9540001
-0.3515597 0.30782536 1.9210001
-0.34981048 0.31070971 1.9390001
-0.34423363 0.31022897 1.9360001
-0.33183935 0.3034988 1.8940001
-0.32604998 0.30269757 1.8890001
-0.32045662 0.30205661 1.8850001
-0.31488404 0.30141565 1.881
-0.30933231 0.30077469 1.8770001
-0.30363914 0.29997346 1.8720001
-0.29829124 0.29949275 1.8690001
-0.29374388 0.29981321 1.8710001
-0.28841412 0.2993325 1.868
-0.28325182 0.29901201 1.8660001
-0.27795067 0.29853129 1.863
-0.27266517 0.29805058 1.8600001
-0.26739529 0.29756984 1.8570001
-0.26214096 0.2970891 1.8540001
-0.25010148 0.28875652 1.802
-0.24486968 0.28811553 1.7980001
-0.2391243 0.28683361 1.7900001
-0.23394448 0.28619266 1.7860001
-0.22878549 0.28555167 1.7820001
-0.21811271 0.27786005 1.7340001
-0.21089245 0.27433473 1.7120001
-0.15160722 0.22049332 1.376
-0.1484585 0.22113429 1.3800001
-0.14486907 0.22113429 1.3800001
-0.140563 0.22001259 1.373
-0.13719134 0.22033308 1.3750001
-0.13351773 0.22017284 1.3740001
-0.12984933 0.22001259 1.373
-0.12609416 0.21969211 1.3710001
-0.12234939 0.21937163 1.3690001
-0.11852826 0.21889089 1.3660001
-0.11472274 0.21841016 1.363
-0.11076968 0.21760896 1.358
-0.10700057 0.21712822 1.355
-0.1031707 0.21648726 1.3510001
-0.099435404 0.21600653 1.348
-0.095715709 0.21552581 1.345
-0.092011623 0.21504508 1.342
-0.088389114 0.2147246 1.34
-0.084650286 0.21408363 1.3360001
-0.081053779 0.21376315 1.3340001
-0.077409513 0.21328242 1.3310001
-0.073725305 0.21264145 1.327
-0.07016781 0.21232097 1.325
-0.066570371 0.21184023 1.322
-0.062988535 0.2113595 1.319
-0.059467457 0.21103902 1.317
-0.055829134 0.21023782 1.312
-0.052656282 0.21119927 1.3180001
-0.048779912 0.20927636 1.3060001
-0.045278706 0.20879564 1.3030001
-0.041889552 0.20879564 1.3030001
-0.038470853 0.20863539 1.302
-0.035057358 0.20847516 1.3010001
-0.031649064 0.20831491 1.3000001
-0.028267711 0.20831491 1.3000001
-0.02486722 0.20815466 1.299
-0.021488473 0.20815466 1.299
-0.018095786 0.20799443 1.2980001
-0.014708299 0.20783418 1.2970001
-0.011326013 0.20767394 1.296
-0.0079427939 0.20735344 1.294
-0.0045664404 0.20687272 1.291
-0.0012066292 0.20655224 1.289
0.0021427777 0.20623176 1.2870001
0.0054903128 0.20623176 1.2870001
0.0088309795 0.20607151 1.286
0.012185382 0.20623176 1.2870001
0.015544987 0.20639201 1.2880001
0.018924464 0.20671248 1.2900001
0.022297071 0.20687272 1.291
0.025714627 0.20735344 1.294
0.048092458 0.30734462 1.9180001
0.053081248 0.30734462 1.9180001
0.058130588 0.30766508 1.9200001
0.063190334 0.30798557 1.9220001
0.068260483 0.30830607 1.9240001
0.073836073 0.31070971 1.9390001
0.079042204 0.31135067 1.9430001
0.084225871 0.31183138 1.9460001
0.08947102 0.31247234 1.95
0.094785452 0.31327358 1.955
0.099666148 0.31263259 1.9510001
0.10495551 0.31327358 1.955
0.11054712 0.31471574 1.9640001
0.11595 0.31551698 1.9690001
0.12144037 0.31647843 1.9750001
0.12715422 0.3179206 1.9840001
0.13264814 0.3187218 1.9890001
0.13830665 0.3198435 1.9960001
0.14378588 0.32048446 2
0.14928594 0.32112545 2.0040002
0.15488389 0.32192665 2.0090001
0.16034846 0.32240736 2.0120001
0.16591093 0.32304835 2.016
0.17149422 0.32368931 2.02
0.1770108 0.32417002 2.023
0.18272321 0.32497126 2.0280001
0.18836892 0.32561222 2.0320001
0.19394015 0.32609296 2.0350001
0.19933115 0.32625318 2.036
0.20472737 0.32641345 2.0370002
0.20868532 0.3243303 2.0240002
0.2136327 0.32384956 2.0210001
0.21856447 0.32336885 2.0180001
0.22359152 0.32304835 2.016
0.22872172 0.32288811 2.0150001
0.23407891 0.32304835 2.016
0.23956004 0.32336885 2.0180001
0.24529417 0.32400981 2.0220001
0.25117305 0.32481104 2.0270002
0.25720441 0.32577246 2.033
0.26326704 0.32673392 2.039
0.26949254 0.32785562 2.046
0.27575454 0.32897732 2.0530002
0.2820529 0.33009902 2.0600002
0.28824812 0.33106044 2.066
0.29433247 0.33186167 2.0710001
0.30029812 0.33250263 2.075
0.30628455 0.33314359 2.079
0.3121419 0.33362433 2.082
0.3178623 0.33394483 2.0840001
0.32328287 0.33394483 2.0840001
0.32870343 0.33394483 2.0840001
0.33412397 0.33394483 2.0840001
0.33954453 0.33394483 2.0840001
0.34496513 0.33394483 2.0840001
0.35038567 0.33394483 2.0840001
0.35734284 0.33538702 2.0930002
0.36226681 0.33490628 2.0900002
0.36752701 0.334746 2.089
0.37260354 0.33442557 2.0870001
0.37785074 0.33426532 2.0860002
0.38309276 0.33410504 2.085
0.3887023 0.33426532 2.0860002
0.39431697 0.33442557 2.0870001
0.39993688 0.33458579 2.0880001
0.40536785 0.33458579 2.0880001
0.41060206 0.33442557 2.0870001
0.41603044 0.33442557 2.0870001
0.42085299 0.33394483 2.0840001
0.42729622 0.334746 2.089
0.43231553 0.33442557 2.0870001
0.43648541 0.33346409 2.0810001
0.43552768 0.32865682 2.0510001
0.43957272 0.32769537 2.0450001
0.43793017 0.32256761 2.013
0.43634138 0.31760013 1.9820001
0.32911918 0.21424386 1.337
0.33234799 0.21408363 1.3360001
0.33557162 0.21392338 1.335
0.33879003 0.21376315 1.3340001
0.34225985 0.21376315 1.3340001
0.34547043 0.2136029 1.3330001
0.34867582 0.21344265 1.332
0.3516117 0.21312217 1.33
0.35480413 0.21296194 1.3290001
0.35799131 0.21280169 1.3280001
0.36090112 0.21248122 1.3260001
0.36407533 0.21232097 1.325
0.36696696 0.21200047 1.3230001
0.37012812 0.21184023 1.322
0.37300158 0.21151975 1.3200001
0.37557942 0.21103902 1.317
0.37871718 0.21087879 1.3160001
0.3815594 0.2105583 1.314
0.38409823 0.21007758 1.3110001
0.386917 0.20975707 1.309
0.38942724 0.20927636 1.3060001
0.39252341 0.20911612 1.3050001
0.39561436 0.20895587 1.304
0.39839417 0.20863539 1.302
0.40147212 0.20847516 1.3010001
0.40454486 0.20831491 1.3000001
0.40761244 0.20815466 1.299
0.41067481 0.20799443 1.2980001
0.41373193 0.20783418 1.2970001
0.41646233 0.2075137 1.2950001
0.41950646 0.20735344 1.294
0.4225454 0.20719323 1.2930001
0.42557916 0.20703296 1.2920001
0.42860767 0.20687272 1.291
0.43163103 0.20671248 1.2900001
0.43498635 0.20671248 1.2900001
0.66494238 0.31119043 1.9420002
0.67102855 0.31167114 1.9450001
0.67747802 0.31231213 1.9490001
0.68429846 0.31311333 1.9540001
0.69043928 0.31359407 1.9570001
0.7058363 0.31824109 1.9860001
0.71171796 0.31856155 1.988
0.72410101 0.32176641 2.0080001
0.73005027 0.32208687 2.01
0.73637581 0.32256761 2.013
0.75340086 0.32769537 2.0450001
0.758349 0.32753515 2.0440001
0.7644127 0.32785562 2.046
0.77575386 0.33041948 2.062
0.78945118 0.33394483 2.0840001
0.79868585 0.33554724 2.0940001
0.80643654 0.33650869 2.1000001
0.81460506 0.33763039 2.1070001
0.82242078 0.33859184 2.1130002
0.82948405 0.3392328 2.1170001
0.83735698 0.34019428 2.1230001
0.84089381 0.33939305 2.118
0.84600323 0.3392328 2.1170001
0.84949845 0.3384316 2.112
0.85418224 0.33811113 2.1100001
0.85763323 0.3373099 2.105
0.86351848 0.33747017 2.1060002
0.86899632 0.33747017 2.1060002
0.87405878 0.3373099 2.105
0.87953395 0.3373099 2.105
0.88669097 0.33795089 2.1090002
0.89471465 0.33891231 2.115
0.9083029 0.34195691 2.1340001
0.91599476 0.34275815 2.1390002
0.92285091 0.34323889 2.1420002
0.93058944 0.34404007 2.1470001
0.93922615 0.34516177 2.154
0.9461447 0.34564251 2.1570001
0.9521963 0.34580272 2.158
0.96002865 0.34660396 2.1630001
0.96654761 0.34692445 2.1650002
0.973975 0.34756541 2.1690001
0.97690678 0.34660396 2.1630001
0.98389554 0.3470847 2.1660001
0.98952937 0.3470847 2.1660001
0.99424434 0.34676418 2.164
0.99941093 0.34660396 2.1630001
1.003643 0.34612322 2.1600001
0.99991632 0.3429184 2.1400001
0.99843466 0.34051475 2.125
0.99545777 0.33763039 2.1070001
0.98431122 0.33202189 2.072
0.98540181 0.33057976 2.0630002
0.96915615 0.32336885 2.0180001
0.95509076 0.31695914 1.978
0.9573229 0.31599769 1.9720001
0.95269096 0.31279287 1.9520001
0.9612028 0.31391454 1.9590001
0.95741957 0.31103018 1.9410001
0.95998883 0.31022897 1.9360001
0.9625321 0.30942777 1.9310001
0.96655267 0.30910727 1.9290001
0.97056264 0.30878678 1.927
0.98266256 0.31103018 1.9410001
0.97855157 0.30814582 1.9230001
0.98406482 0.30830607 1.9240001
-1.5742998 0.48706424 2.9910002
-1.5628538 0.48592436 2.9840002
-1.5524865 0.48511013 2.9790001
-1.5374784 0.48283032 2.9650002
-1.5282186 0.4823418 2.9620001
-1.5200011 0.48217896 2.9610002
-1.5122994 0.48217896 2.9610002
-1.5020568 0.48136473 2.9560001
-1.4938627 0.48120189 2.9550002
-1.4861767 0.48120189 2.9550002
-1.4950017 0.48657572 2.9880002
-1.4877274 0.48673856 2.9890001
-1.4987681 0.49292663 3.0270002
-1.5056707 0.49781191 3.0570002
-1.5129071 0.50286001 3.0880001
-1.5204697 0.50807101 3.1200001
-1.5356215 0.5158875 3.1680002
-1.5432917 0.52126133 3.2010002
-1.5594215 0.52956635 3.2520001
-1.5671786 0.53510302 3.2860003
-1.5870911 0.5448736 3.3460002
-1.5788596 0.54503644 3.3470001
-1.5950174 0.55366713 3.4000001
-1.6048348 0.56018084 3.4400001
-1.5963511 0.56034374 3.4410002
-1.6040086 0.5662061 3.4770002
-1.594506 0.5660432 3.4760001
-1.5850086 0.56588042 3.4750001
-1.5723419 0.56457764 3.4670002
-1.542582 0.55708688 3.4210002
-1.5336839 0.55708688 3.4210002
-1.5225571 0.55627263 3.4160001
-1.4999356 0.55122453 3.3850002
-1.488488 0.55024743 3.3790002
-1.4713787 0.54715341 3.3600001
-1.462204 0.54699057 3.3590002
-1.453467 0.54699057 3.3590002
-1.4451603 0.54715341 3.3600001
-1.4372759 0.54747909 3.3620002
-1.4306556 0.54829329 3.3670001
-1.4227426 0.54861903 3.3690002
-1.4139798 0.54861903 3.3690002
-1.4193983 0.55415565 3.4030001
-1.4117904 0.55464423 3.4060001
-1.4029313 0.55464423 3.4060001
-1.3936629 0.55448139 3.4050002
-1.3835863 0.55399287 3.4020002
-1.3735253 0.55350429 3.3990002
-1.3634799 0.55301577 3.3960001
-1.3534499 0.55252725 3.3930001
-1.3466061 0.55334145 3.3980002
-1.3232012 0.54731625 3.3610001
-1.3171967 0.54845619 3.3680003
-1.2944509 0.54259384 3.3320003
-1.2668756 0.5346145 3.2830002
-1.2602527 0.5354287 3.2880001
-1.2357117 0.52858925 3.2460001
-1.2064741 0.51963294 3.1910002
-1.1812772 0.51230496 3.1460001
-1.1555688 0.50465131 3.0990002
-1.1378808 0.50041741 3.0730002
-1.113342 0.49308944 3.0280001
-1.109482 0.49488071 3.039
-1.0885283 0.48901838 3.0030003
-1.0677617 0.48315603 2.9670002
-1.0607589 0.48348171 2.9690001
-1.0328199 0.47419962 2.9120002
-1.0248936 0.47403681 2.9110003
-1.0148755 0.47289687 2.904
-1.0055878 0.47208267 2.8990002
-0.99701464 0.47159413 2.8960001
-0.98914033 0.47143131 2.8950002
-0.98194945 0.47159413 2.8960001
-0.97542626 0.47208267 2.8990002
-0.96955508 0.47289687 2.904
-0.96200174 0.47289687 2.904
-0.95543432 0.47338539 2.9070001
-0.94885129 0.47387394 2.9100001
-0.94192922 0.47419962 2.9120002
-0.94333917 0.47875923 2.9400001
-0.93537384 0.47859639 2.9390001
-0.9270981 0.47827071 2.937
-0.9169544 0.47696796 2.9290001
-0.91026729 0.47745651 2.9320002
-0.90264106 0.47745651 2.9320002
-0.88249928 0.4707799 2.891
-0.87407172 0.47029141 2.8880002
-0.86595982 0.4699657 2.8860002
-0.84239066 0.46117216 2.832
-0.82264066 0.45433277 2.7900002
-0.81509149 0.4541699 2.789
-0.78408587 0.44081673 2.707
-0.738006 0.41867006 2.5710001
-0.69917601 0.40026879 2.4580002
-0.63584566 0.37079415 2.2770002
-0.60945117 0.35874373 2.2030001
-0.59138906 0.35141578 2.158
-0.58333313 0.34995022 2.1490002
-0.5704847 0.34555346 2.1220002
-0.56629652 0.34636766 2.1270001
-0.55180037 0.34083101 2.0930002
-0.53748095 0.33529431 2.059
-0.5326423 0.33562002 2.0610001
-0.52625829 0.33496863 2.0570002
-0.50976545 0.32780352 2.013
-0.50202322 0.32617506 2.003
-0.49582121 0.3255237 1.9990001
-0.48792198 0.32373244 1.988
-0.48177978 0.32308108 1.9840001
-0.47613886 0.3227554 1.9820001
-0.47027072 0.32226685 1.9790001
-0.46465322 0.32194117 1.9770001
-0.45904613 0.32161549 1.9750001
-0.45390907 0.32161549 1.9750001
-0.44831753 0.32128978 1.973
-0.4429611 0.32112694 1.9720001
-0.43783185 0.32112694 1.9720001
-0.4327026 0.32112694 1.9720001
-0.42757335 0.32112694 1.9720001
-0.42244411 0.32112694 1.9720001
-0.41752645 0.32128978 1.973
-0.41239461 0.32128978 1.973
-0.40602428 0.32031274 1.9670001
-0.40090802 0.32031274 1.9670001
-0.39538938 0.31998706 1.9650002
-0.38968247 0.31949851 1.9620001
-0.38399121 0.31900999 1.9590001
-0.37812212 0.3183586 1.955
-0.37456357 0.31966135 1.9630001
-0.36870492 0.31900999 1.9590001
-0.36268142 0.31819576 1.9540001
-0.35046166 0.31184489 1.9150001
-0.34403741 0.31054214 1.9070001
-0.33765477 0.30923939 1.899
-0.33183935 0.30842516 1.8940001
-0.32604998 0.30761096 1.8890001
-0.32045662 0.3069596 1.8850001
-0.31471664 0.30614537 1.8800001
-0.3091675 0.30549398 1.876
-0.30347693 0.30467978 1.8710001
-0.29813161 0.30419123 1.868
-0.29248789 0.30337703 1.863
-0.28717896 0.30288851 1.8600001
-0.28188565 0.30239996 1.8570001
-0.27645874 0.3017486 1.853
-0.26929352 0.29914311 1.8370001
-0.26408345 0.29865459 1.8340001
-0.25860617 0.29784036 1.8290001
-0.25010148 0.29344359 1.802
-0.24023922 0.28725556 1.7640001
-0.23471586 0.28611565 1.7570001
-0.23027682 0.28627849 1.7580001
-0.22198099 0.28155604 1.7290001
-0.21786115 0.28204456 1.7320001
-0.20695053 0.27357671 1.6800001
-0.15039523 0.22228107 1.365
-0.14792061 0.22390951 1.3750001
-0.14381929 0.2230953 1.3700001
-0.14025588 0.2230953 1.3700001
-0.13659267 0.22293246 1.3690001
-0.13303185 0.22293246 1.3690001
-0.12937646 0.2227696 1.368
-0.1256343 0.22244392 1.3660001
-0.12190253 0.22211824 1.3640001
-0.11809441 0.22162971 1.3610001
-0.11421773 0.22097833 1.3570001
-0.11036184 0.22032696 1.353
-0.10652677 0.21967559 1.3490001
-0.10278887 0.21918705 1.3460001
-0.099066585 0.21869852 1.3430001
-0.095359892 0.21821 1.34
-0.091668814 0.21772146 1.337
-0.087993346 0.21723294 1.3340001
-0.084333479 0.21674441 1.3310001
-0.080689222 0.21625587 1.3280001
-0.077060558 0.21576734 1.325
-0.073391959 0.21511598 1.3210001
-0.069797114 0.21462744 1.3180001
-0.066217877 0.21413891 1.3150001
-0.062654249 0.21365038 1.312
-0.059106227 0.21316184 1.309
-0.055488709 0.21234763 1.304
-0.051937152 0.21169627 1.3000001
-0.048369054 0.21088205 1.2950001
-0.045104958 0.21137059 1.2980001
-0.041728809 0.21137059 1.2980001
-0.038293567 0.21104488 1.296
-0.034922622 0.21104488 1.296
-0.031551678 0.21104488 1.296
-0.028180733 0.21104488 1.296
-0.024790648 0.21088205 1.2950001
-0.021455389 0.21120773 1.2970001
-0.018081844 0.21120773 1.2970001
-0.014708299 0.21120773 1.2970001
-0.011326013 0.21104488 1.296
-0.0079489322 0.21088205 1.2950001
-0.0045735152 0.21055637 1.2930001
-0.0012094375 0.21039352 1.2920001
0.0021494376 0.21023066 1.291
0.0055116424 0.21039352 1.2920001
0.0088653145 0.21023066 1.291
0.012223254 0.21023066 1.291
0.015593263 0.21039352 1.2920001
0.018983142 0.2107192 1.294
0.022383427 0.21104488 1.296
0.025774244 0.21120773 1.2970001
0.029215209 0.21169627 1.3000001
0.048117533 0.31249627 1.9190001
0.053025898 0.31200773 1.9160001
0.058070038 0.31233341 1.9180001
0.063124582 0.31265908 1.9200001
0.068686225 0.31526458 1.9360001
0.073874153 0.31591597 1.9400001
0.079042204 0.31640449 1.9430001
0.084225871 0.31689301 1.9460001
0.08947102 0.3175444 1.95
0.094785452 0.3183586 1.955
0.09951289 0.31721869 1.9480001
0.10474077 0.31770724 1.9510001
0.11060341 0.31998706 1.9650002
0.11600889 0.32080126 1.9700001
0.12150186 0.32177833 1.9760001
0.12702605 0.3227554 1.9820001
0.13284822 0.32438383 1.9920001
0.13851452 0.3255237 1.9990001
0.14407347 0.32633793 2.0040002
0.1496584 0.32715213 2.0090001
0.15526938 0.32796639 2.0140002
0.16090633 0.32878056 2.0190001
0.16648701 0.32943195 2.023
0.17191872 0.32975763 2.0250001
0.1775358 0.33040902 2.029
0.18326382 0.33122325 2.0340002
0.18864702 0.33138606 2.0350001
0.19394015 0.33138606 2.0350001
0.19991857 0.33252597 2.0420001
0.20402384 0.33057189 2.0300002
0.20899464 0.33008334 2.0270002
0.21394981 0.32959482 2.0240002
0.21888939 0.32910627 2.0210001
0.22392425 0.32878056 2.0190001
0.22906226 0.32861775 2.0180001
0.23442724 0.32878056 2.0190001
0.24003488 0.32926911 2.0220001
0.24577941 0.32992047 2.026
0.25166872 0.3307347 2.0310001
0.25771052 0.33171177 2.0370002
0.26391265 0.33285168 2.0440001
0.27015114 0.33399156 2.0510001
0.27642611 0.33513147 2.0580001
0.28273749 0.33627138 2.0650001
0.28894573 0.33724844 2.0710001
0.29504311 0.33806267 2.0760002
0.30102175 0.33871403 2.0800002
0.30702117 0.33936539 2.0840001
0.31274161 0.3396911 2.0860002
0.31847239 0.34001675 2.0880001
0.32390335 0.34001675 2.0880001
0.32933435 0.34001675 2.0880001
0.33476529 0.34001675 2.0880001
0.34019625 0.34001675 2.0880001
0.34562722 0.34001675 2.0880001
0.35290766 0.34180805 2.0990002
0.35785505 0.34131953 2.0960002
0.36296013 0.34099382 2.0940001
0.36805481 0.34066811 2.092
0.37331766 0.3405053 2.0910001
0.3785753 0.34034246 2.0900002
0.38382769 0.34017959 2.089
0.38944766 0.34034246 2.0900002
0.39507273 0.3405053 2.0910001
0.4005115 0.3405053 2.0910001
0.40614441 0.34066811 2.092
0.41158575 0.34066811 2.092
0.41662848 0.34034246 2.0900002
0.42166075 0.34001675 2.0880001
0.42811444 0.34083101 2.0930002
0.432937 0.34034246 2.0900002
0.43669516 0.33903968 2.082
0.43616474 0.33448011 2.0540001
0.43978766 0.33317733 2.046
0.43858284 0.32829204 2.016
0.43634138 0.3227554 1.9820001
0.44082838 0.32226685 1.9790001
0.44575045 0.32210401 1.978
0.43904167 0.31363615 1.9260001
0.32887304 0.21755862 1.3360001
0.33209923 0.21739577 1.335
0.33557162 0.21739577 1.335
0.33853605 0.21707009 1.3330001
0.34200329 0.21707009 1.3330001
0.34521127 0.21690725 1.332
0.34841409 0.21674441 1.3310001
0.3516117 0.21658155 1.33
0.35480413 0.21641873 1.3290001
0.35772172 0.21609302 1.327
0.36090112 0.21593019 1.3260001
0.36407533 0.21576734 1.325
0.36696696 0.21544166 1.3230001
0.36984819 0.21511598 1.3210001
0.37271899 0.21479027 1.319
0.37557942 0.21446459 1.317
0.37814161 0.21397606 1.314
0.38097864 0.21365038 1.312
0.38351226 0.21316184 1.309
0.38632584 0.21283616 1.307
0.38912907 0.21251048 1.3050001
0.39192185 0.2121848 1.3030001
0.39470422 0.21185912 1.3010001
0.3974762 0.21153341 1.299
0.40054637 0.21137059 1.2980001
0.4036113 0.21120773 1.2970001
0.40667105 0.21104488 1.296
0.40972564 0.21088205 1.2950001
0.41277495 0.2107192 1.294
0.41549754 0.21039352 1.2920001
0.41853386 0.21023066 1.291
0.42156503 0.21006784 1.2900001
0.42492038 0.21006784 1.2900001
0.42794371 0.20990498 1.289
0.43062723 0.2095793 1.2870001
0.43431196 0.20974216 1.2880001
0.43698251 0.20941645 1.286
0.43998504 0.20925362 1.2850001
0.67068356 0.31656733 1.9440001
0.67747802 0.31738156 1.9490001
0.68429846 0.31819576 1.9540001
0.69079208 0.31884715 1.9580001
0.69695115 0.31933567 1.9610001
0.713866 0.3247095 1.9940001
0.72193736 0.32601225 2.0020001
0.72859746 0.32666361 2.006
0.73564422 0.32747784 2.0110002
0.74050641 0.32731497 2.01
0.75760698 0.33252597 2.0420001
0.76515996 0.33350304 2.0480001
0.77462518 0.33529431 2.059
0.78073841 0.33562002 2.0610001
0.79868585 0.34099382 2.0940001
0.80605257 0.34180805 2.0990002
0.81421852 0.34294796 2.1060002
0.82242078 0.34408787 2.1130002
0.82948405 0.34473923 2.1170001
0.83617371 0.34522775 2.1200001
0.84407008 0.34620482 2.1260002
0.84720206 0.34522775 2.1200001
0.85030293 0.34425068 2.1140001
0.85499185 0.343925 2.112
0.859263 0.34343648 2.1090002
0.86433852 0.34327361 2.108
0.86982155 0.34327361 2.108
0.87488931 0.3431108 2.1070001
0.88120538 0.34343648 2.1090002
0.88795221 0.343925 2.112
0.8955608 0.34473923 2.1170001
0.90957981 0.34799609 2.1370001
0.91685122 0.34864745 2.141
0.92328173 0.34897316 2.1430001
0.93102282 0.34978735 2.148
0.94053429 0.35125294 2.1570001
0.94746065 0.35174149 2.1600001
0.95396137 0.35206717 2.1620002
0.96269172 0.35320708 2.1690001
0.96922618 0.35353273 2.171
0.97577113 0.35385844 2.1730001
0.98006833 0.35336992 2.1700001
0.98616672 0.35353273 2.171
0.99135673 0.35336992 2.1700001
0.99608225 0.35304424 2.1680002
1.0007972 0.35271856 2.1660001
1.0045724 0.35206717 2.1620002
0.99898177 0.34815893 2.138
0.99843466 0.34604195 2.125
0.9945128 0.34278509 2.105
0.98336118 0.3370856 2.0700002
0.98444647 0.33562002 2.0610001
0.96867597 0.32845491 2.0170002
0.95509076 0.32210401 1.978
0.96314842 0.32308108 1.9840001
0.95122677 0.31738156 1.9490001
0.95384288 0.31656733 1.9440001
0.95593977 0.31559026 1.9380001
0.95850122 0.31477606 1.9330001
0.96103674 0.31396183 1.9280001
0.96404731 0.31331047 1.9240001
0.96754068 0.31282195 1.9210001
0.97051215 0.31217057 1.9170001
0.97600722 0.31233341 1.9180001
0.98099601 0.31233341 1.9180001
-1.5742998 0.49484396 2.9910002
-1.5633775 0.4938513 2.9850001
-1.5530077 0.49302411 2.9800003
-1.5374784 0.49054241 2.9650002
-1.5287346 0.49021152 2.9630001
-1.5210277 0.49021152 2.9630001
-1.5138316 0.49037698 2.9640002
-1.5122197 0.49236229 2.9760001
-1.5070066 0.49318954 2.9810002
-1.5007619 0.49368587 2.9840002
-1.5145148 0.50079995 3.0270002
-1.524062 0.50659049 3.062
-1.5165929 0.50675595 3.0630002
-1.5288197 0.5135392 3.1040001
