# .PCD v0.7 - Point Cloud Data file format
VERSION 0.7
FIELDS x y z
SIZE 4 4 4
TYPE F F F
COUNT 1 1 1
WIDTH 1526
HEIGHT 1
VIEWPOINT 0 0 0 1 0 0 0
POINTS 1526
DATA ascii
0.95990282 0.43235618 2.2280002
0.96569788 0.43235618 2.2280002
0.96626055 0.43002748 2.2160001
0.98211312 0.43449077 2.2390001
0.98837805 0.43468481 2.24
0.99376059 0.43449077 2.2390001
0.99824494 0.43390861 2.2360001
1.0022647 0.43313238 2.2320001
0.9904561 0.4255642 2.1930001
0.99434322 0.424788 2.1890001
0.99912316 0.42439988 2.187
0.99102825 0.41857821 2.1570001
0.99201816 0.41663766 2.1470001
0.99574399 0.41586143 2.1430001
1.0003835 0.41547331 2.141
1.0054826 0.41527927 2.1400001
1.0101037 0.41489112 2.138
1.0147147 0.41450304 2.1360002
1.0202706 0.41450304 2.1360002
1.0248659 0.41411492 2.1340001
1.0294508 0.41372684 2.1320002
1.0194615 0.40751705 2.1000001
1.0200431 0.4055765 2.0900002
1.0068341 0.39820236 2.052
1.0111851 0.39781427 2.0500002
1.0031288 0.39257473 2.023
0.99194145 0.38617092 1.9900001
0.99461222 0.38520062 1.9850001
0.98365796 0.37899083 1.9530001
0.98620641 0.37802055 1.9480001
0.97448063 0.37161672 1.9150001
0.97792715 0.37103456 1.9120001
-1.9485315 0.72802329 3.7020001
-1.9389023 0.72802329 3.7020001
-1.9292732 0.72802329 3.7020001
-1.9196442 0.72802329 3.7020001
-1.9100153 0.72802329 3.7020001
-1.9003863 0.72802329 3.7020001
-1.879521 0.72369683 3.6800001
-1.869949 0.72369683 3.6800001
-1.8492554 0.71937042 3.6580002
-1.8397409 0.71937042 3.6580002
-1.8192189 0.71504396 3.6360002
-1.7993091 0.71091419 3.6150002
-1.7795085 0.70678437 3.5940001
-1.7598174 0.7026546 3.5730002
-1.7392554 0.6981315 3.5500002
-1.7076045 0.6890853 3.5040002
-1.7033378 0.69105184 3.5140002
-1.6536989 0.67453265 3.4300001
-1.6275144 0.66745299 3.3940001
-1.6015172 0.66037339 3.3580003
-1.5813991 0.6556536 3.3340001
-1.5486693 0.64562416 3.2830002
-1.5152667 0.63520133 3.2300003
-1.5054657 0.63461137 3.2270002
-1.479907 0.62733501 3.1900001
-1.4633061 0.62379521 3.1720002
-1.4536794 0.62320524 3.1690001
-1.4440683 0.62261528 3.1660001
-1.4349264 0.62222195 3.164
-1.425795 0.62182868 3.1620002
-1.4171221 0.62163204 3.1610003
-1.4066716 0.62064874 3.1560001
-1.4126425 0.62694174 3.1880002
-1.4047908 0.62713838 3.1890001
-1.3969339 0.62733501 3.1900001
-1.4003901 0.63264483 3.2170002
-1.4093308 0.6405111 3.2570002
-1.4008592 0.6405111 3.2570002
-1.4064955 0.64700073 3.2900002
-1.3983628 0.64719737 3.2910001
-1.3902251 0.647394 3.2920001
-1.3820823 0.6475907 3.2930002
-1.3730999 0.647394 3.2920001
-1.3637083 0.64700073 3.2900002
-1.3543271 0.6466074 3.2880001
-1.344547 0.64601743 3.2850001
-1.3351892 0.64562416 3.2830002
-1.3088697 0.63697124 3.2390001
-1.3008466 0.63716793 3.2400002
-1.2940147 0.63795453 3.2440002
-1.2661586 0.62831837 3.1950002
-1.2586356 0.6287117 3.1970003
-1.2464091 0.62674505 3.187
-1.2385082 0.62694174 3.1880002
-1.2306019 0.62713838 3.1890001
-1.2226905 0.62733501 3.1900001
-1.2143931 0.62733501 3.1900001
-1.2223536 0.6357913 3.233
-1.2161973 0.63697124 3.2390001
-1.2211964 0.6440509 3.2750001
-1.2248974 0.65054053 3.3080001
-1.2170285 0.65093386 3.3100002
-1.2095144 0.65152383 3.3130002
-1.2008971 0.65152383 3.3130002
-1.1940792 0.65250713 3.3180001
-1.185449 0.65250713 3.3180001
-1.1764641 0.65231049 3.3170002
-1.1558659 0.64562416 3.2830002
-1.1333477 0.6377579 3.2430003
-1.1256063 0.63815117 3.2450001
-1.1064935 0.63205481 3.2140002
-1.0861752 0.62517184 3.1790001
-1.0650218 0.61769885 3.141
-1.0487766 0.61297911 3.1170001
-1.0273144 0.60511285 3.0770001
-1.0179861 0.60432625 3.0730002
-0.9975037 0.59685326 3.0350001
-0.97917545 0.59056026 3.0030003
-0.97201145 0.59095353 3.0050001
-0.96323276 0.59036356 3.0020001
-0.95478791 0.58997029 3.0000002
-0.9362523 0.58328396 2.9660001
-0.92791152 0.58289063 2.9640002
-0.90840453 0.5754177 2.9260001
-0.90048605 0.575221 2.9250002
-0.88310981 0.568928 2.8930001
-0.86438668 0.56165171 2.8560002
-0.84195542 0.55181891 2.8060002
-0.81234783 0.53706962 2.7310002
-0.78430974 0.52310699 2.6600001
-0.74202847 0.49931148 2.539
-0.57078105 0.40196642 2.0440001
-0.55301541 0.39311686 1.9990001
-0.54699379 0.39252689 1.9960001
-0.54125929 0.39213356 1.9940001
-0.5355351 0.39174026 1.9920001
-0.5298214 0.39134696 1.9900001
-0.52411801 0.39095363 1.988
-0.51248407 0.38997033 1.983
-0.50655878 0.3893804 1.9800001
-0.50242162 0.390167 1.9840001
-0.49675989 0.3897737 1.9820001
-0.49160463 0.3897737 1.9820001
-0.48620394 0.38957703 1.9810001
-0.48129413 0.3897737 1.9820001
-0.47685957 0.39036366 1.9850001
-0.47193414 0.39056033 1.9860001
-0.46582836 0.3897737 1.9820001
-0.46137041 0.39036366 1.9850001
-0.45827577 0.39213356 1.9940001
-0.4524076 0.3915436 1.9910001
-0.44925058 0.3933135 2
-0.44471458 0.39390346 2.003
-0.44016296 0.39449346 2.006
-0.43624625 0.39567339 2.0120001
-0.43165562 0.39626336 2.0150001
-0.42726097 0.39704999 2.0190001
-0.42263657 0.39763996 2.0220001
-0.41840938 0.39862326 2.0270002
-0.41415611 0.39960653 2.0320001
-0.41048059 0.40117982 2.0400002
-0.40616751 0.40216306 2.0450001
-0.40084842 0.40216306 2.0450001
-0.39668977 0.40334302 2.0510001
-0.39211825 0.40412962 2.0550001
-0.39129019 0.40884939 2.079
-0.38625386 0.40924272 2.0810001
-0.38102409 0.40943936 2.082
-0.37470675 0.40845609 2.0770001
-0.36877096 0.40786612 2.0740001
-0.36267558 0.40707952 2.0700002
-0.35591057 0.40550622 2.062
-0.34969723 0.40452296 2.0570002
-0.34217066 0.40196642 2.0440001
-0.33603013 0.40098312 2.039
-0.32878023 0.39862326 2.0270002
-0.32286951 0.3978366 2.023
-0.31682262 0.39685336 2.0180001
-0.31095615 0.39606673 2.0140002
-0.3046551 0.39469013 2.0070002
-0.29883802 0.39390346 2.003
-0.29304174 0.39311686 1.9990001
-0.28755432 0.39272356 1.9970001
-0.28207725 0.39233023 1.9950001
-0.27661058 0.39193693 1.9930001
-0.27129054 0.39174026 1.9920001
-0.26610926 0.39174026 1.9920001
-0.26105899 0.39193693 1.9930001
-0.25613192 0.39233023 1.9950001
-0.25119439 0.39272356 1.9970001
-0.24772473 0.39547676 2.0110002
-0.24237344 0.39528006 2.01
-0.23702739 0.39508343 2.0090001
-0.2318019 0.39508343 2.0090001
-0.22680199 0.39547676 2.0110002
-0.22245273 0.39704999 2.0190001
-0.21720122 0.39704999 2.0190001
-0.21320948 0.39940989 2.0310001
-0.20813151 0.39980316 2.033
-0.20314294 0.40039313 2.036
-0.19784722 0.40039313 2.036
-0.19207865 0.39940989 2.0310001
-0.18799159 0.40196642 2.0440001
-0.18276443 0.40216306 2.0450001
-0.17744531 0.40216306 2.0450001
-0.17212619 0.40216306 2.0450001
-0.16688864 0.40235969 2.046
-0.16164589 0.40255639 2.0470002
-0.15639792 0.40275306 2.0480001
-0.15099725 0.40255639 2.0470002
-0.14567292 0.40255639 2.0470002
-0.14055428 0.40314639 2.0500002
-0.13522217 0.40314639 2.0500002
-0.12989004 0.40314639 2.0500002
-0.12449714 0.40294969 2.049
-0.11730654 0.39665669 2.0170002
-0.11061574 0.3915436 1.9910001
-0.10432498 0.38741383 1.9700001
-0.097942032 0.3824974 1.9450001
-0.091163844 0.37541774 1.909
-0.085656621 0.37305787 1.8970001
-0.07919056 0.36597821 1.8610001
-0.072991677 0.35929191 1.8270001
-0.066558801 0.35044235 1.7820001
-0.061750002 0.34945905 1.7770001
-0.056356397 0.34473932 1.7530001
-0.051855873 0.34513262 1.7550001
-0.045997623 0.33569309 1.7070001
-0.0407786 0.32940006 1.6750001
-0.035660807 0.3225171 1.6400001
-0.030763375 0.3160274 1.6070001
-0.026285747 0.3124876 1.5890001
-0.021859933 0.30835781 1.5680001
-0.017690783 0.30678454 1.5600001
-0.013283596 0.29891828 1.5200001
-0.0092993295 0.29793501 1.5150001
-0.0053375359 0.29675505 1.5090001
-0.0014060179 0.29537845 1.5020001
0.0024890853 0.29400188 1.4950001
0.0063477741 0.29262525 1.488
0.010163181 0.29105198 1.48
0.013946439 0.28967541 1.473
0.017693285 0.28829882 1.4660001
0.021418383 0.28711885 1.46
0.025129544 0.28613558 1.455
0.02881469 0.28515229 1.45
0.032518774 0.28456232 1.447
0.03618218 0.28377572 1.4430001
0.039907798 0.28357905 1.442
0.04362822 0.28338239 1.4410001
0.047376316 0.28338239 1.4410001
0.051159885 0.28357905 1.442
0.054948661 0.28377572 1.4430001
0.058742639 0.28397238 1.4440001
0.06249854 0.28397238 1.4440001
0.066300318 0.28416902 1.4450001
0.070107296 0.28436568 1.4460001
0.073817313 0.28416902 1.4450001
0.077522129 0.28397238 1.4440001
0.081165448 0.28357905 1.442
0.084798366 0.28318572 1.4400001
0.088297911 0.28239912 1.4360001
0.091840729 0.28180915 1.4330001
0.095301256 0.28102249 1.429
0.098671675 0.28003922 1.424
0.10208798 0.27925259 1.4200001
0.10533448 0.27807266 1.414
0.10862688 0.27708936 1.409
0.11189326 0.27610609 1.404
0.11521593 0.27531946 1.4000001
0.1184329 0.27433619 1.3950001
0.12179884 0.27374622 1.3920001
0.12514918 0.27315623 1.3890001
0.12857662 0.27276292 1.3870001
0.13218427 0.27276292 1.3870001
0.135694 0.27256626 1.386
0.13950004 0.27295956 1.388
0.14331651 0.27335289 1.3900001
0.14714335 0.27374622 1.3920001
0.15098061 0.27413952 1.3940001
0.15493917 0.27472949 1.3970001
0.1593674 0.27610609 1.404
0.16383202 0.27748269 1.411
0.16773951 0.27787602 1.4130001
0.17153607 0.27807266 1.414
0.17560244 0.27295956 1.388
0.18205324 0.27728602 1.4100001
0.18558896 0.27708936 1.409
0.18522429 0.27118966 1.3790001
0.31600788 0.42182878 2.1450002
0.3208375 0.42084545 2.1400001
0.32594612 0.42025548 2.1370001
0.33057377 0.41907555 2.131
0.3359589 0.41887888 2.1300001
0.34133875 0.41868225 2.1290002
0.34703928 0.41887888 2.1300001
0.3525795 0.41887888 2.1300001
0.35845599 0.41927221 2.1320002
0.36451358 0.41986215 2.135
0.37041348 0.42025548 2.1370001
0.37667561 0.42104211 2.141
0.38278005 0.42163208 2.1440001
0.38908118 0.42241868 2.148
0.39521945 0.42300868 2.151
0.4013733 0.42359865 2.154
0.40848744 0.42517191 2.1620002
0.41621783 0.42733514 2.1730001
0.42284063 0.42831844 2.1780002
0.42948937 0.42930171 2.1830001
0.43536678 0.42949834 2.184
0.44165328 0.43008831 2.187
0.44815996 0.43087497 2.1910002
0.45406598 0.43107161 2.1920002
0.46018693 0.43146491 2.194
0.46589357 0.43146491 2.194
0.47138533 0.43126827 2.1930001
0.47665432 0.43087497 2.1910002
0.48191288 0.43048164 2.1890001
0.48716101 0.43008831 2.187
0.4923988 0.42969504 2.1850002
0.49717021 0.42890838 2.181
0.50238198 0.42851508 2.1790001
0.50711703 0.42772847 2.1750002
0.51230276 0.42733514 2.1730001
0.51723975 0.42674515 2.1700001
0.52216107 0.42615518 2.1670001
0.52731043 0.42576191 2.1650002
0.53244936 0.42536858 2.1630001
0.5388217 0.42595854 2.1660001
0.54370141 0.42536858 2.1630001
0.54856557 0.42477858 2.1600001
0.55341417 0.42418861 2.1570001
0.55876541 0.42399198 2.1560001
0.56411147 0.42379534 2.1550002
0.5707742 0.42458194 2.1590002
0.57612282 0.42438525 2.158
0.58146626 0.42418861 2.1570001
0.5862602 0.42359865 2.154
0.59433585 0.42536858 2.1630001
0.59552383 0.42222205 2.1470001
0.603908 0.42418861 2.1570001
0.60754049 0.42281201 2.1500001
0.60087001 0.41435578 2.1070001
0.60519928 0.41356918 2.1030002
0.60689437 0.41101265 2.0900002
0.61057264 0.40983269 2.0840001
0.6151064 0.40924272 2.0810001
0.62051922 0.40924272 2.0810001
0.62593192 0.40924272 2.0810001
0.63195151 0.40963605 2.0830002
0.63859344 0.41042265 2.0870001
0.65081072 0.41474912 2.1090002
0.65785217 0.41573238 2.1140001
0.66491979 0.41671568 2.1190002
0.67201328 0.41769895 2.1240001
0.67945182 0.41887888 2.1300001
0.68531364 0.41907555 2.131
0.69085646 0.41907555 2.131
0.69639921 0.41907555 2.131
0.70227152 0.41927221 2.1320002
0.70881283 0.41986215 2.135
0.71503526 0.42025548 2.1370001
0.72160524 0.42084545 2.1400001
0.72988987 0.42241868 2.148
0.74198252 0.42615518 2.1670001
0.75003397 0.42753178 2.174
0.75812185 0.42890838 2.181
0.76519561 0.42969504 2.1850002
0.76840919 0.42831844 2.1780002
0.77549595 0.42910504 2.1820002
0.7822454 0.42969504 2.1850002
0.78828919 0.42989168 2.1860001
0.79433829 0.43008831 2.187
0.80368483 0.43205488 2.197
0.80866253 0.43166161 2.1950002
0.81177479 0.43028501 2.1880002
0.8137297 0.42831844 2.1780002
0.81788981 0.42753178 2.174
0.82089281 0.42615518 2.1670001
0.83034343 0.42812175 2.177
0.83562183 0.42792511 2.1760001
0.84089518 0.42772847 2.1750002
0.84655243 0.42772847 2.1750002
0.85299325 0.42812175 2.177
0.86181116 0.42969504 2.1850002
0.8682884 0.43008831 2.187
0.87157905 0.42890838 2.181
0.87845868 0.42949834 2.184
0.88859248 0.43166161 2.1950002
0.89633882 0.43264484 2.2
0.90329117 0.43323484 2.2030001
0.91108447 0.43421814 2.2080002
0.91931885 0.43539804 2.214
0.93050933 0.43795457 2.227
0.93756318 0.43854454 2.23
0.94336349 0.43854454 2.23
0.95129198 0.43952787 2.2350001
0.95667714 0.4393312 2.2340002
0.96205693 0.43913454 2.233
0.97003227 0.44011784 2.2380002
0.97977781 0.44188777 2.2470002
0.9851836 0.44169107 2.2460001
0.99102551 0.44169107 2.2460001
0.99686748 0.44169107 2.2460001
1.0013701 0.4411011 2.243
1.005408 0.44031447 2.2390001
0.99090773 0.43146491 2.194
0.99479741 0.43067828 2.1900001
1.0000368 0.43048164 2.1890001
1.0061899 0.43067828 2.1900001
0.99525249 0.42359865 2.154
0.99853194 0.42261538 2.1490002
1.0022526 0.42182878 2.1450002
1.0068921 0.42143545 2.1430001
1.0115211 0.42104211 2.141
1.0161399 0.42064881 2.1390002
1.0255247 0.42222205 2.1470001
1.0306289 0.42202541 2.1460001
1.0357279 0.42182878 2.1450002
1.0325688 0.41828892 2.1270001
1.0312685 0.41553575 2.1130002
1.0264605 0.41140592 2.092
1.0259829 0.40904608 2.0800002
1.013046 0.40176973 2.043
1.009886 0.39842656 2.026
1.0126505 0.39744332 2.0210001
0.99776059 0.38957703 1.9810001
1.0029132 0.38957703 1.9810001
0.98872888 0.38210407 1.9430001
0.99173683 0.38131747 1.9390001
-1.9606375 0.7422353 3.7250001
-1.9509485 0.7422353 3.7250001
-1.9412596 0.7422353 3.7250001
-1.9315708 0.7422353 3.7250001
-1.9100153 0.73765236 3.7020001
-1.8890928 0.73326868 3.6800001
-1.879521 0.73326868 3.6800001
-1.85877 0.72888505 3.6580002
-1.8381336 0.72450137 3.6360002
-1.8286762 0.72450137 3.6360002
-1.8087119 0.72031695 3.6150002
-1.7888566 0.71613252 3.5940001
-1.7691108 0.7119481 3.5730002
-1.7470114 0.70676744 3.5470002
-1.7387655 0.70716596 3.5490003
-1.7105285 0.69939488 3.5100002
-1.6766776 0.68923271 3.4590001
-1.6532168 0.68325502 3.4290001
-1.6270349 0.67608172 3.3930001
-1.6143942 0.67448765 3.3850002
-1.5700153 0.65954334 3.3100002
-1.5486693 0.65416336 3.2830002
-1.5133901 0.64280564 3.2260001
-1.5035996 0.64220786 3.223
-1.4785153 0.63503456 3.187
-1.4656125 0.63304204 3.177
-1.4555142 0.632245 3.1730001
-1.4458927 0.63164723 3.1700001
-1.4362869 0.63104945 3.1670001
-1.4275986 0.6308502 3.1660001
-1.4184669 0.63045168 3.164
-1.4195974 0.6346361 3.1850002
-1.4126425 0.63523388 3.1880002
-1.4047908 0.63543314 3.1890001
-1.3969339 0.63563234 3.1900001
-1.4008254 0.64121163 3.2180002
-1.4084654 0.64858413 3.2550001
-1.399999 0.64858413 3.2550001
-1.3911052 0.64838487 3.2540002
-1.3847659 0.64938116 3.2590001
-1.3771337 0.64977968 3.2610002
-1.3690715 0.64997894 3.2620001
-1.3601698 0.64977968 3.2610002
-1.3533458 0.65057671 3.2650001
-1.3440297 0.65017819 3.2630002
-1.3347238 0.64977968 3.2610002
-1.3258351 0.64958042 3.2600002
-1.3080616 0.64499754 3.2370002
-1.3000435 0.64519674 3.2380002
-1.2716765 0.63523388 3.1880002
-1.2657622 0.63642943 3.1940002
-1.2586356 0.6370272 3.1970003
-1.2468002 0.63523388 3.1880002
-1.2385082 0.63523388 3.1880002
-1.2306019 0.63543314 3.1890001
-1.2226905 0.63563234 3.1900001
-1.2147739 0.63583165 3.1910002
-1.2072302 0.63623017 3.1930001
-1.2158219 0.64519674 3.2380002
-1.2070268 0.64499754 3.2370002
-1.2241569 0.6587463 3.3060002
-1.2162931 0.65914482 3.3080001
-1.2084191 0.65954334 3.3100002
-1.1994473 0.65934408 3.3090003
-1.1854421 0.6563552 3.2940001
-1.1758025 0.65575743 3.2910001
-1.1668879 0.65555817 3.2900002
-1.1562181 0.65436262 3.2840002
-1.1322993 0.64559531 3.2400002
-1.1214437 0.64420044 3.233
-1.0934111 0.63284278 3.1760001
-1.0742166 0.62646651 3.1440001
-1.0650218 0.62586874 3.141
-1.0474309 0.6202895 3.1130002
-1.0269806 0.61291701 3.0760002
-1.0176547 0.61211991 3.072
-0.99651766 0.60414964 3.0320001
-0.97852325 0.59797269 3.0010002
-0.97071761 0.59797269 3.0010002
-0.9629119 0.59797269 3.0010002
-0.9436487 0.59079939 2.9650002
-0.92741376 0.58541942 2.9380002
-0.91914582 0.5850209 2.9360001
-0.89722794 0.57585502 2.8900001
-0.88940316 0.57565582 2.8890002
-0.88280457 0.57625359 2.8920002
-0.8571229 0.56429809 2.832
-0.5811708 0.41086957 2.062
-0.56156594 0.40070745 2.0110002
-0.5524621 0.39791784 1.9970001
-0.54644573 0.39732006 1.9940001
-0.54071641 0.39692155 1.9920001
-0.5349974 0.39652303 1.9900001
-0.52928889 0.39612448 1.988
-0.52359074 0.395726 1.9860001
-0.51711982 0.3947297 1.9810001
-0.5117088 0.39453045 1.9800001
-0.50579125 0.39393267 1.9770001
-0.49735686 0.39134231 1.9640001
-0.4917472 0.39094383 1.9620001
-0.48862821 0.39253789 1.9700001
-0.48448592 0.3933349 1.9740001
-0.47935146 0.3933349 1.9740001
-0.46941239 0.38934976 1.9540001
-0.46409231 0.38915047 1.9530001
-0.45924753 0.38934976 1.9540001
-0.45462999 0.38974825 1.9560001
-0.45023182 0.39034602 1.9590001
-0.44604528 0.39114305 1.9630001
-0.44677973 0.39632377 1.9890001
-0.44271636 0.39732006 1.9940001
-0.4384076 0.3981171 1.9980001
-0.43429482 0.39911336 2.003
-0.42951339 0.3995119 2.0050001
-0.42704937 0.40210226 2.0180001
-0.42263657 0.40289927 2.0220001
-0.41779011 0.40329781 2.0240002
-0.41456378 0.40529037 2.0340002
-0.4130964 0.40907627 2.0530002
-0.40855089 0.40987331 2.0570002
-0.40829694 0.41505402 2.0830002
-0.40442628 0.41664806 2.0910001
-0.39898747 0.41664806 2.0910001
-0.39223126 0.41525325 2.0840001
-0.38718194 0.4156518 2.0860002
-0.38175616 0.4156518 2.0860002
-0.37560874 0.41485474 2.082
-0.36965996 0.41425696 2.079
-0.36337638 0.41326067 2.0740001
-0.35642838 0.41146734 2.0650001
-0.35037723 0.41067034 2.0610001
-0.34150106 0.40648594 2.0400002
-0.33537093 0.40548962 2.0350001
-0.32861799 0.4036963 2.026
-0.32255033 0.40270004 2.0210001
-0.31650862 0.40170372 2.016
-0.31049296 0.40070745 2.0110002
-0.30404788 0.39911336 2.003
-0.29824123 0.39831635 1.9990001
-0.29245538 0.39751932 1.9950001
-0.28697833 0.3971208 1.9930001
-0.28151166 0.39672229 1.9910001
-0.27605543 0.39632377 1.9890001
-0.27074578 0.39612448 1.988
-0.26570851 0.39632377 1.9890001
-0.26066601 0.39652303 1.9900001
-0.25561836 0.39672229 1.9910001
-0.25081703 0.39732006 1.9940001
-0.24600013 0.39791784 1.9970001
-0.24128821 0.39871487 2.0010002
-0.23655546 0.3995119 2.0050001
-0.2318019 0.40030891 2.0090001
-0.22725311 0.40150446 2.0150001
-0.22256289 0.40250075 2.02
-0.21903005 0.40568885 2.036
-0.21352442 0.40529037 2.0340002
-0.20833628 0.40548962 2.0350001
-0.20314294 0.40568885 2.036
-0.19784722 0.40568885 2.036
-0.19236237 0.40529037 2.0340002
-0.18697987 0.40509108 2.033
-0.18276443 0.40748221 2.0450001
-0.17735854 0.40728295 2.0440001
-0.17204203 0.40728295 2.0440001
-0.16680707 0.40748221 2.0450001
-0.1615669 0.40768144 2.046
-0.15632157 0.40788072 2.0470002
-0.15092348 0.40768144 2.046
-0.14553058 0.40748221 2.0450001
-0.1404857 0.40827921 2.049
-0.13515618 0.40827921 2.049
-0.12982666 0.40827921 2.049
-0.12243131 0.40150446 2.0150001
-0.11498018 0.39393267 1.9770001
-0.11033795 0.395726 1.9860001
-0.10236558 0.38516533 1.9330001
-0.096028514 0.37998462 1.9070001
-0.083850473 0.37002173 1.8570001
-0.077743769 0.36404401 1.8270001
-0.071593367 0.35706997 1.7920001
-0.065475635 0.34929892 1.7530001
-0.060012527 0.34411824 1.7270001
-0.055102602 0.34152788 1.7140001
-0.050408047 0.33993381 1.7060001
-0.045081444 0.33335832 1.6730001
-0.04046211 0.33116645 1.6620001
-0.035443362 0.32479021 1.6300001
-0.030552797 0.31801546 1.5960001
-0.026285747 0.31662065 1.5890001
-0.021748401 0.31084216 1.5600001
-0.017656762 0.31024438 1.557
-0.013283596 0.30287185 1.5200001
-0.0092686387 0.3008793 1.5100001
-0.0053269244 0.30008224 1.506
-0.0014032096 0.29868746 1.4990001
0.0024840906 0.29729265 1.4920001
0.006326444 0.29549932 1.483
0.010135713 0.29410452 1.4760001
0.013861227 0.29171342 1.4640001
0.017608801 0.29071712 1.4590001
0.021330364 0.28972086 1.4540001
0.025043188 0.2889238 1.45
0.028715329 0.28792751 1.4450001
0.032406408 0.28732973 1.442
0.03608188 0.28673196 1.439
0.039797097 0.28653273 1.4380001
0.04350711 0.28633344 1.437
0.047277682 0.28653273 1.4380001
0.051088929 0.28693122 1.4400001
0.054872505 0.2871305 1.4410001
0.058701955 0.28752902 1.4430001
0.062455256 0.28752902 1.4430001
0.066254437 0.28772828 1.4440001
0.070010334 0.28772828 1.4440001
0.073766232 0.28772828 1.4440001
0.07746844 0.28752902 1.4430001
0.081109166 0.2871305 1.4410001
0.084739476 0.28673196 1.439
0.088236421 0.28593495 1.4350001
0.091776632 0.28533715 1.432
0.095234565 0.28454015 1.4280001
0.098671675 0.28374311 1.424
0.10194419 0.28254756 1.4180001
0.10533448 0.28175053 1.414
0.10862688 0.28075424 1.409
0.11181357 0.27955872 1.4030001
0.11513363 0.27876166 1.399
0.11851779 0.27816388 1.396
0.12179884 0.27736685 1.3920001
0.12514918 0.27676907 1.3890001
0.12866931 0.27656981 1.388
0.13218427 0.27637058 1.3870001
0.1357919 0.27637058 1.3870001
0.13960055 0.27676907 1.3890001
0.14352271 0.27736685 1.3920001
0.14735477 0.27776536 1.3940001
0.15130553 0.27836314 1.3970001
0.1552719 0.27896091 1.4000001
0.15970792 0.28035572 1.4070001
0.16429646 0.28194979 1.4150001
0.16821435 0.2823483 1.4170001
0.17202133 0.28254756 1.4180001
0.17595744 0.28294608 1.4200001
0.17939788 0.28254756 1.4180001
0.18218234 0.28115276 1.411
0.18624754 0.28175053 1.414
0.29982829 0.42820501 2.1490002
0.30584431 0.42880282 2.1520002
0.31115228 0.42840427 2.1500001
0.31644982 0.42800573 2.148
0.32128727 0.42700946 2.1430001
0.32625118 0.42621246 2.1390002
0.33150455 0.42581391 2.1370001
0.3367475 0.4254154 2.135
0.34214038 0.42521614 2.1340001
0.347691 0.42521614 2.1340001
0.35340714 0.4254154 2.135
0.3591285 0.42561468 2.1360002
0.36519653 0.42621246 2.1390002
0.37128016 0.42681023 2.1420002
0.37737936 0.42740801 2.1450002
0.38367274 0.42820501 2.1490002
0.3896246 0.4286035 2.151
0.39595443 0.42940059 2.1550002
0.40305036 0.43099463 2.1630001
0.40981004 0.43219018 2.1690001
0.41698399 0.43378422 2.177
0.42342302 0.43458125 2.181
0.43007958 0.43557754 2.1860001
0.43596479 0.4357768 2.187
0.4424611 0.43657386 2.1910002
0.44877353 0.43717161 2.194
0.45468742 0.4373709 2.1950002
0.46039671 0.4373709 2.1950002
0.46631828 0.43757012 2.1960001
0.47181526 0.4373709 2.1950002
0.47687185 0.43677312 2.1920002
0.482133 0.43637457 2.1900001
0.48738381 0.43597609 2.1880002
0.4923988 0.43537831 2.1850002
0.49762613 0.43497977 2.1830001
0.50238198 0.43418276 2.1790001
0.50735015 0.43358499 2.1760001
0.51253849 0.43318644 2.174
0.51819319 0.43318644 2.174
0.52288395 0.43238941 2.1700001
0.52804112 0.43199092 2.1680002
0.53392637 0.43219018 2.1690001
0.53907043 0.43179163 2.1670001
0.54370141 0.43099463 2.1630001
0.54856557 0.43039685 2.1600001
0.5536707 0.42999831 2.158
0.56213456 0.43219018 2.1690001
0.5677762 0.43219018 2.1690001
0.57368225 0.43238941 2.1700001
0.57959342 0.43258867 2.171
0.58524024 0.43258867 2.171
0.59034282 0.43219018 2.1690001
0.5954349 0.43179163 2.1670001
0.60023922 0.43119386 2.164
0.60502791 0.43059608 2.161
0.60754049 0.42840427 2.1500001
0.60144043 0.42023471 2.1090002
0.60577482 0.41943765 2.105
0.6077655 0.41704658 2.0930002
0.61057264 0.41525325 2.0840001
0.6151064 0.41465548 2.0810001
0.62022102 0.41445625 2.0800002
0.62563121 0.41445625 2.0800002
0.63134468 0.41465548 2.0810001
0.63736951 0.41505402 2.0830002
0.64649045 0.41744506 2.095
0.65660745 0.42043397 2.1100001
0.66586119 0.42282507 2.1220002
0.67074776 0.42242655 2.1200001
0.67945182 0.42441911 2.1300001
0.68177617 0.42242655 2.1200001
0.68988383 0.42402059 2.128
0.69541883 0.42402059 2.128
0.70194209 0.42461836 2.131
0.70848089 0.42521614 2.1340001
0.7177121 0.42740801 2.1450002
0.72497725 0.42840427 2.1500001
0.7315889 0.42900205 2.1530001
0.73924333 0.4301976 2.1590002
0.75106895 0.43378422 2.177
0.75951236 0.43537831 2.1850002
0.76659638 0.43617532 2.1890001
0.77264279 0.43637457 2.1900001
0.77940536 0.43697235 2.1930001
0.78546739 0.43717161 2.194
0.78973162 0.43637457 2.1900001
0.79688078 0.43717161 2.194
0.80405074 0.43796867 2.1980002
0.80903095 0.43757012 2.1960001
0.80991971 0.43497977 2.1830001
0.81410331 0.43418276 2.1790001
0.81826609 0.43338573 2.1750002
0.82695389 0.43497977 2.1830001
0.83225054 0.43478054 2.1820002
0.83754188 0.43458125 2.181
0.84321481 0.43458125 2.181
0.84927696 0.43478054 2.1820002
0.85573596 0.43517902 2.184
0.86338884 0.43617532 2.1890001
0.86947948 0.43637457 2.1900001
0.87317765 0.43537831 2.1850002
0.88046986 0.43617532 2.1890001
0.88899726 0.43757012 2.1960001
0.89633882 0.43836716 2.2
0.91395187 0.44414562 2.2290001
0.92140013 0.44494265 2.233
0.92845392 0.44554043 2.2360001
0.93259853 0.44474342 2.2320001
0.93966538 0.4453412 2.2350001
0.94505566 0.44514194 2.2340002
0.95256889 0.44593897 2.2380002
0.95796174 0.44573969 2.237
0.96507275 0.44633746 2.24
0.97480005 0.44813079 2.2490001
0.98239392 0.44892782 2.253
0.98825407 0.44892782 2.253
0.99411416 0.44892782 2.253
0.99997437 0.44892782 2.253
1.0044951 0.44833004 2.25
1.0076532 0.44713452 2.2440002
1.0139416 0.44733375 2.2450001
1.0147843 0.44514194 2.2340002
1.014199 0.44235229 2.22
1.0126222 0.43916416 2.204
1.0160447 0.4381679 2.1990001
1.0134007 0.43458125 2.181
1.0186063 0.43438199 2.1800001
1.0247464 0.43458125 2.181
1.0299468 0.43438199 2.1800001
1.035617 0.43438199 2.1800001
1.0451087 0.43597609 2.1880002
1.0503193 0.4357768 2.187
1.0555249 0.43557754 2.1860001
1.0500454 0.43099463 2.1630001
1.0488386 0.42820501 2.1490002
1.0397084 0.42222729 2.1190002
1.0343683 0.41784361 2.0970001
1.0269302 0.41266289 2.0710001
1.0263354 0.41027179 2.059
1.0296867 0.40947476 2.0550001
1.0158926 0.401903 2.0170002
1.002407 0.39453045 1.9800001
1.0019594 0.3923386 1.9690001
1.0055465 0.39174083 1.9660001
-1.9606375 0.75192416 3.7250001
-1.9509485 0.75192416 3.7250001
-1.9412596 0.75192416 3.7250001
-1.9315708 0.75192416 3.7250001
-1.9100153 0.74728143 3.7020001
-1.8890928 0.74284053 3.6800001
-1.879521 0.74284053 3.6800001
-1.85877 0.73839968 3.6580002
-1.8381336 0.73395872 3.6360002
-1.8181146 0.72971976 3.6150002
-1.7876978 0.72124165 3.5730002
-1.7784042 0.72124165 3.5730002
-1.7562373 0.71599334 3.5470002
-1.7470114 0.71599334 3.5470002
-1.720638 0.70892823 3.5120001
-1.6847 0.69782603 3.4570003
-1.6757083 0.69782603 3.4570003
-1.6522526 0.69177026 3.427
-1.6155262 0.68006247 3.3690002
-1.6124864 0.68248475 3.381
-1.5704896 0.66835463 3.3110001
-1.5486693 0.66270262 3.2830002
-1.512921 0.65099478 3.2250001
-1.5026666 0.65018731 3.2210002
-1.4785153 0.64332414 3.187
-1.4683805 0.64251667 3.1830001
-1.4582666 0.64170927 3.1790001
-1.4481734 0.64090186 3.1750002
-1.4376475 0.63989252 3.1700001
-1.4294022 0.63989252 3.1700001
-1.4202603 0.63948882 3.1680002
-1.4187059 0.64251667 3.1830001
-1.4250495 0.64917803 3.2160001
-1.4175656 0.64958179 3.2180002
-1.4100714 0.64998549 3.2200003
-1.4016961 0.64998549 3.2200003
-1.4076 0.65664685 3.2530003
-1.3982786 0.65624309 3.2510002
-1.3893952 0.65604126 3.2500002
-1.383916 0.65745425 3.2570002
-1.376289 0.65785795 3.2590001
-1.3678123 0.65785795 3.2590001
-1.3580842 0.65725237 3.256
-1.3438122 0.65442634 3.2420001
-1.3337321 0.65361893 3.2380002
-1.3240821 0.65301335 3.2350001
-1.3144475 0.65240777 3.2320001
-1.3072534 0.65301335 3.2350001
-1.2835822 0.64534277 3.1970003
-1.2708788 0.64312226 3.1860001
-1.265366 0.64453524 3.1930001
-1.2444627 0.63807583 3.1610003
-1.2350675 0.63747025 3.1580002
-1.224911 0.6364609 3.1530001
-1.21671 0.6364609 3.1530001
-1.2088921 0.63666278 3.154
-1.2010691 0.63686466 3.1550002
-1.2068521 0.64433342 3.1920002
-1.2150708 0.65321517 3.2360001
-1.206654 0.65321517 3.2360001
-1.2071239 0.65805984 3.2600002
-1.1997474 0.65866542 3.2630002
-1.1923555 0.659271 3.2660003
-1.1918352 0.66371185 3.2880001
-1.1843625 0.66431743 3.2910001
-1.175088 0.66391379 3.2890003
-1.1516367 0.65543568 3.2470002
-1.1428391 0.6552338 3.2460001
-1.1267077 0.6507929 3.2240002
-1.1186688 0.65099478 3.2250001
-1.0923783 0.6404981 3.1730001
-1.073875 0.63444233 3.1430001
-1.0497637 0.624955 3.0960002
-1.046085 0.62757915 3.1090002
-1.0266466 0.62071592 3.075
-1.0050665 0.61243975 3.0340002
-0.99651766 0.61203599 3.0320001
-0.97754508 0.60517281 2.9980001
-0.96910024 0.60476905 2.9960001
-0.95264423 0.59931892 2.9690001
-0.94333047 0.59830964 2.9640002
-0.92741376 0.59306127 2.9380002
-0.91163236 0.58781296 2.9120002
-0.89691752 0.58317024 2.8890002
-0.88909531 0.58296835 2.8880002
-0.86998373 0.57529771 2.8500001
-0.84925389 0.56641591 2.8060002
-0.80864924 0.54400957 2.6950002
-0.63810164 0.44469503 2.2030001
-0.8660304 0.60900813 3.0170002
-0.58852524 0.41764593 2.069
-0.57017869 0.40836042 2.023
-0.56212437 0.40634182 2.013
-0.55135554 0.40230468 1.9930001
-0.5456236 0.40190095 1.9910001
-0.53990209 0.40149724 1.9890001
-0.53419089 0.40109351 1.9870001
-0.52849019 0.40068981 1.9850001
-0.52279979 0.40028608 1.983
-0.51659775 0.39947864 1.9790001
-0.51093346 0.39907494 1.9770001
-0.50476789 0.39826748 1.973
-0.49862304 0.39746007 1.9690001
-0.49300036 0.39705634 1.9670001
-0.48441163 0.39423031 1.9530001
-0.47761378 0.39281732 1.9460001
-0.47158083 0.39200988 1.9420002
-0.46604913 0.39160615 1.9400001
-0.46005261 0.39079872 1.9360001
-0.45454696 0.39039502 1.9340001
-0.44928411 0.39019313 1.9330001
-0.44448614 0.39039502 1.9340001
-0.44013739 0.39100057 1.937
-0.43599772 0.391808 1.9410001
-0.43183717 0.39261544 1.9450001
-0.42743641 0.39322102 1.9480001
-0.42128551 0.39221174 1.9430001
-0.42844227 0.40371767 2
-0.41943106 0.40008423 1.9820001
-0.41782913 0.40351582 1.9990001
-0.41779011 0.4085623 2.0240002
-0.41843629 0.41441622 2.0530002
-0.4130964 0.41441622 2.0530002
-0.4113315 0.41804966 2.0710001
-0.4081009 0.42027009 2.082
-0.40268552 0.42027009 2.082
-0.3991783 0.42228869 2.092
-0.39298409 0.42148125 2.0880001
-0.38792437 0.42188498 2.0900002
-0.38248819 0.42188498 2.0900002
-0.37633041 0.42107758 2.0860002
-0.37019339 0.42027009 2.082
-0.363902 0.41926083 2.0770001
-0.35642838 0.4168385 2.0650001
-0.35054722 0.41623291 2.062
-0.34099886 0.41118649 2.0370002
-0.33487654 0.41017717 2.0320001
-0.32845581 0.40876415 2.0250001
-0.32223111 0.40755299 2.0190001
-0.31619465 0.40654373 2.0140002
-0.31018415 0.40553442 2.0090001
-0.30328894 0.40331396 1.9980001
-0.29749525 0.40250653 1.9940001
-0.29186898 0.40190095 1.9910001
-0.28640237 0.40149724 1.9890001
-0.28094611 0.40109351 1.9870001
-0.27550027 0.40068981 1.9850001
-0.27033722 0.40068981 1.9850001
-0.26530772 0.40089166 1.9860001
-0.26027307 0.40109351 1.9870001
-0.2552332 0.40129536 1.988
-0.25031391 0.4016991 1.9900001
-0.2455074 0.40230468 1.9930001
-0.24080586 0.40311211 1.9970001
-0.23620151 0.4041214 2.0020001
-0.23145574 0.40492883 2.006
-0.22691476 0.40614 2.0120001
-0.22234255 0.40735117 2.0180001
-0.21763153 0.40836042 2.023
-0.21362938 0.41078275 2.0350001
-0.20843865 0.41098458 2.036
-0.20314294 0.41098458 2.036
-0.19775005 0.41078275 2.0350001
-0.19236237 0.4105809 2.0340002
-0.18697987 0.41037899 2.033
-0.1816026 0.41017717 2.0320001
-0.177185 0.41219574 2.0420001
-0.17187369 0.41219574 2.0420001
-0.16656236 0.41219574 2.0420001
-0.16148794 0.41280133 2.0450001
-0.15616883 0.41280133 2.0450001
-0.15070218 0.41239759 2.043
-0.14517477 0.41179207 2.0400002
-0.1388402 0.40876415 2.0250001
-0.13337521 0.40815857 2.0220001
-0.12608838 0.4016991 1.9900001
-0.12085155 0.40149724 1.9890001
-0.11346804 0.3938266 1.9510001
-0.10700448 0.38878015 1.9260001
-0.10045913 0.38292623 1.8970001
-0.094064638 0.3770723 1.868
-0.088012032 0.37202585 1.8430001
-0.082044318 0.36677751 1.817
-0.076041661 0.36072174 1.7870001
-0.070195056 0.35466599 1.7570001
-0.064765975 0.35002324 1.7340001
-0.059109036 0.34336188 1.7010001
-0.054877561 0.34457305 1.7070001
-0.049255691 0.33649868 1.6670001
-0.044326942 0.3320578 1.6450001
-0.039585672 0.32822248 1.626
-0.03479103 0.32297415 1.6
-0.030208217 0.31853324 1.5780001
-0.0259549 0.31671652 1.5690001
-0.021873875 0.31671652 1.5690001
-0.017498 0.31146821 1.5430001
-0.013397207 0.30944961 1.5330001
-0.0092870537 0.30541244 1.5130001
-0.0053375359 0.30460501 1.5090001
-0.0014060179 0.30319199 1.5020001
0.0024790957 0.30056781 1.4890001
0.00635204 0.30056781 1.4890001
0.010176916 0.29915482 1.4820001
0.01379495 0.29410833 1.457
0.017536387 0.2933009 1.4530001
0.021242343 0.29229161 1.4480001
0.024939561 0.29148418 1.4440001
0.028635843 0.29087859 1.4410001
0.032316517 0.29027301 1.4380001
0.036006659 0.28986931 1.4360001
0.039714072 0.28966743 1.4350001
0.04341628 0.28946558 1.434
0.047179051 0.28966743 1.4350001
0.05098249 0.29007116 1.437
0.054758266 0.29027301 1.4380001
0.058579914 0.29067674 1.4400001
0.062368695 0.29087859 1.4410001
0.066162668 0.29108045 1.442
0.069913365 0.29108045 1.442
0.073664062 0.29108045 1.442
0.07736107 0.29087859 1.4410001
0.081052877 0.29067674 1.4400001
0.084621705 0.29007116 1.437
0.088174932 0.28946558 1.434
0.091648459 0.28865814 1.4300001
0.095167875 0.28805256 1.427
0.098533094 0.28704327 1.4220001
0.1018723 0.28603399 1.4170001
0.10518549 0.28502467 1.4120001
0.10854979 0.28421727 1.4080001
0.11181357 0.28320795 1.4030001
0.11513363 0.28240052 1.399
0.11851779 0.28179494 1.396
0.12179884 0.2809875 1.3920001
0.12523928 0.2805838 1.3900001
0.12876202 0.28038192 1.3890001
0.13237487 0.28038192 1.3890001
0.1359877 0.28038192 1.3890001
0.13990206 0.2809875 1.3920001
0.14372891 0.28139123 1.3940001
0.14767188 0.28199682 1.3970001
0.15173875 0.28280422 1.401
0.15571553 0.2834098 1.404
0.16084301 0.28603399 1.4170001
0.16487701 0.28663957 1.4200001
0.16880791 0.28704327 1.4220001
0.17250659 0.28704327 1.4220001
0.17620526 0.28704327 1.4220001
0.17952439 0.28643769 1.419
0.30178156 0.43662068 2.1630001
0.30641279 0.43520766 2.1560001
0.31202063 0.43520766 2.1560001
0.31718647 0.43460208 2.1530001
0.32203686 0.43359277 2.148
0.32716635 0.43298724 2.1450002
0.33228019 0.43238166 2.1420002
0.33753616 0.43197793 2.1400001
0.34294203 0.43177608 2.1390002
0.34850568 0.43177608 2.1390002
0.35406929 0.43177608 2.1390002
0.35996914 0.43217978 2.141
0.36587945 0.43258351 2.1430001
0.37197348 0.43318909 2.1460001
0.37808311 0.43379468 2.1490002
0.38438687 0.43460208 2.1530001
0.39053029 0.43520766 2.1560001
0.39687309 0.4360151 2.1600001
0.40379569 0.43742812 2.1670001
0.41056576 0.43863925 2.1730001
0.41698399 0.43944669 2.177
0.42419961 0.44106159 2.1850002
0.43007958 0.44126344 2.1860001
0.43616417 0.44166717 2.1880002
0.4424611 0.44227275 2.1910002
0.44897813 0.44308019 2.1950002
0.45489454 0.44328201 2.1960001
0.46102595 0.44368574 2.1980002
0.46695533 0.44388759 2.1990001
0.47224513 0.44348386 2.197
0.4773069 0.44287828 2.194
0.48367405 0.44348386 2.197
0.48894307 0.44308019 2.1950002
0.49375093 0.44227275 2.1910002
0.49853796 0.44146529 2.187
0.50353473 0.44085971 2.184
0.50851589 0.44025412 2.181
0.51324576 0.43944669 2.177
0.51771647 0.43843743 2.1720002
0.52288395 0.43803367 2.1700001
0.52779752 0.43742812 2.1670001
0.53589565 0.43944669 2.177
0.5413093 0.43924484 2.1760001
0.54671782 0.43904302 2.1750002
0.54932743 0.43662068 2.1630001
0.55495358 0.43662068 2.1630001
0.56343037 0.4388411 2.174
0.569085 0.4388411 2.174
0.57500416 0.43904302 2.1750002
0.58066136 0.43904302 2.1750002
0.58631861 0.43904302 2.1750002
0.59170365 0.4388411 2.174
0.59680879 0.43843743 2.1720002
0.6016261 0.43783185 2.1690001
0.60642779 0.43722627 2.1660001
0.60697526 0.43359277 2.148
0.61085129 0.43238166 2.1420002
0.60635042 0.42531657 2.1070001
0.60921741 0.42349985 2.098
0.61086559 0.42087567 2.085
0.61481082 0.41986641 2.0800002
0.61992282 0.4196645 2.079
0.62502956 0.41946268 2.0780001
0.63043451 0.41946268 2.0780001
0.63645154 0.41986641 2.0800002
0.64556468 0.42228869 2.092
0.65007246 0.4216831 2.089
0.65770262 0.42309615 2.0960002
0.66410357 0.42370173 2.0990002
0.67913288 0.42975751 2.1290002
0.68081141 0.42733517 2.1170001
0.6895597 0.42935374 2.1270001
0.69443846 0.42895001 2.125
0.70128334 0.42975751 2.1290002
0.71279681 0.43339095 2.1470001
0.71804667 0.43318909 2.1460001
0.72565168 0.43440026 2.1520002
0.73294812 0.43540952 2.1570001
0.74061292 0.43662068 2.1630001
0.75106895 0.43944669 2.177
0.75951236 0.44106159 2.1850002
0.76659638 0.44186902 2.1890001
0.77334845 0.4424746 2.1920002
0.7801162 0.44308019 2.1950002
0.78618342 0.44328201 2.1960001
0.79189527 0.44328201 2.1960001
0.79760724 0.44328201 2.1960001
0.80222166 0.44267642 2.1930001
0.80682045 0.44207087 2.1900001
0.81140369 0.44146529 2.187
0.8137297 0.43964857 2.1780002
0.82315689 0.44166717 2.1880002
0.82809031 0.44126344 2.1860001
0.83377618 0.44126344 2.1860001
0.83946204 0.44126344 2.1860001
0.8455345 0.44146529 2.187
0.85161227 0.44166717 2.1880002
0.85808688 0.44207087 2.1900001
0.86496651 0.44267642 2.1930001
0.87067056 0.44267642 2.1930001
0.88236898 0.44570434 2.2080002
0.8905254 0.44691545 2.214
0.89952272 0.44853035 2.2220001
0.90774679 0.44974151 2.2280002
0.91436189 0.45014521 2.23
0.92181283 0.45095268 2.2340002
0.92928439 0.45176011 2.2380002
0.9300915 0.44933778 2.2260001
0.94176751 0.45216379 2.24
0.9484399 0.45256752 2.2420001
0.95597392 0.45337495 2.2460001
0.96181589 0.45337495 2.2460001
0.97153533 0.4551917 2.2550001
0.97826755 0.45559543 2.2570002
0.98544616 0.45620096 2.26
0.99176323 0.45640287 2.2610002
0.99632043 0.45579728 2.2580001
1.0026374 0.45599911 2.2590001
1.0071738 0.45539352 2.256
1.0094494 0.45377868 2.2480001
1.0161998 0.45418239 2.25
1.01433 0.4507508 2.233
1.0146559 0.4483285 2.2210002
1.0190545 0.44772294 2.2180002
1.027596 0.44893408 2.2240002
1.0278049 0.44651178 2.2120001
1.0316894 0.44570434 2.2080002
1.035553 0.44489688 2.204
1.0365611 0.44287828 2.194
1.0413177 0.4424746 2.1920002
1.0460639 0.44207087 2.1900001
1.0507997 0.44166717 2.1880002
1.0608363 0.44348386 2.197
1.0636382 0.44227275 2.1910002
1.051767 0.43500581 2.1550002
1.0612974 0.43662068 2.1630001
1.0526189 0.43076676 2.1340001
1.0398226 0.423298 2.0970001
1.051757 0.42592216 2.1100001
1.0372027 0.41784781 2.0700002
1.0320098 0.41360876 2.049
1.0221514 0.40755299 2.0190001
1.0187521 0.4041214 2.0020001
1.0086153 0.39806566 1.9720001
-1.9722171 0.76611114 3.7470002
-1.9624709 0.76611114 3.7470002
-1.9527248 0.76611114 3.7470002
-1.9315708 0.76161301 3.7250001
-1.9100153 0.75691044 3.7020001
-1.8890928 0.75241232 3.6800001
-1.8682848 0.7479142 3.6580002
-1.85877 0.7479142 3.6580002
-1.8381336 0.74341607 3.6360002
-1.8075529 0.73482877 3.5940001
-1.7876978 0.73053515 3.5730002
-1.7574993 0.72194779 3.5310001
-1.7443541 0.72031212 3.5230002
-1.7342056 0.71990317 3.5210001
-1.6961415 0.70784009 3.4620001
-1.6842126 0.7066133 3.4560001
-1.6606816 0.70047951 3.4260001
-1.6517705 0.70047951 3.4260001
-1.6140877 0.68821192 3.3660002
-1.6005633 0.68616736 3.3560002
-1.5704896 0.67696661 3.3110001
-1.5486693 0.67124176 3.2830002
-1.5124519 0.65917861 3.2240002
-1.5022001 0.65836078 3.2200003
-1.4896494 0.65652066 3.2110002
-1.4706872 0.6518181 3.1880002
-1.4605602 0.65100026 3.1840003
-1.4499978 0.64997792 3.1790001
-1.4385545 0.6485467 3.1720002
-1.4298532 0.64834225 3.1710002
-1.4404343 0.65692955 3.2130001
-1.4334145 0.65754294 3.2160001
-1.4254928 0.65774745 3.2170002
-1.4175656 0.65795189 3.2180002
-1.4100714 0.65836078 3.2200003
-1.4151906 0.66469902 3.2510002
-1.4067346 0.66469902 3.2510002
-1.3965582 0.66388124 3.2470002
-1.3868301 0.66326785 3.2440002
-1.3745681 0.66142768 3.2350001
-1.3644646 0.66060984 3.2310002
-1.3535424 0.65938306 3.2250001
-1.3430687 0.65836078 3.2200003
-1.3301337 0.65611172 3.2090001
-1.3205513 0.65549833 3.2060001
-1.3113939 0.65508944 3.2040002
-1.2900457 0.6485467 3.1720002
-1.2821993 0.64875114 3.1730001
-1.2731433 0.64834225 3.1710002
-1.2648953 0.64834225 3.1710002
-1.2538733 0.64691103 3.164
-1.2448564 0.64650214 3.1620002
-1.2256812 0.64077723 3.1340001
-1.2237455 0.64404857 3.1500001
-1.2159382 0.64425308 3.1510003
-1.2081255 0.64445752 3.1520002
-1.2003077 0.64466196 3.1530001
-1.2060959 0.65222698 3.1900001
-1.1902888 0.64813775 3.1700001
-1.1928573 0.6540671 3.1990001
-1.1834257 0.65345371 3.1960001
-1.190923 0.66224551 3.2390001
-1.1828635 0.66245002 3.2400002
-1.175161 0.6628589 3.2420001
-1.1670883 0.66306341 3.2430003
-1.1582959 0.6628589 3.2420001
-1.1378044 0.65590727 3.2080002
-1.1319247 0.6573385 3.2150002
-1.1274066 0.6595875 3.2260001
-1.0978564 0.64711553 3.1650002
-1.0916898 0.64834225 3.1710002
-1.0653331 0.63750583 3.118
-1.0487463 0.63239437 3.0930002
-1.0356543 0.62932748 3.0780001
-1.0266466 0.62871408 3.075
-1.0050665 0.62033123 3.0340002
-0.99618906 0.6197179 3.0310001
-0.97656685 0.61235732 2.9950001
-0.9678064 0.61174393 2.9920001
-0.95328599 0.60745031 2.9710002
-0.94237566 0.60540569 2.9610002
-0.92015356 0.59600055 2.9150002
-0.91163236 0.59538716 2.9120002
-0.88946652 0.58577758 2.8650002
-0.881091 0.58516419 2.8620002
-0.87059426 0.58311957 2.8520002
-0.83775288 0.56594491 2.7680001
-0.65084577 0.4553321 2.227
-0.61377096 0.43325049 2.1190002
-0.5898881 0.42016503 2.0550001
-0.57544059 0.41362229 2.023
-0.57017869 0.41362229 2.023
-0.55430549 0.40585285 1.9850001
-0.55024898 0.40667069 1.9890001
-0.54452741 0.40626177 1.9870001
-0.53881627 0.40585285 1.9850001
-0.53338432 0.40564838 1.9840001
-0.52769142 0.40523946 1.9820001
-0.52174526 0.40462607 1.9790001
-0.51581466 0.40401271 1.9760001
-0.50989968 0.40339932 1.973
-0.50374454 0.40258148 1.9690001
-0.49862304 0.40258148 1.9690001
-0.49325097 0.40237701 1.9680001
-0.48689196 0.40135473 1.9630001
-0.47098708 0.39235851 1.9190001
-0.46526718 0.39174512 1.9160001
-0.45836172 0.39010945 1.9080001
-0.45197317 0.38888267 1.9020001
-0.44632089 0.38826928 1.899
-0.4402194 0.387247 1.8940001
-0.43437374 0.38642916 1.8900001
-0.42900333 0.38602024 1.8880001
-0.42409256 0.38602024 1.8880001
-0.41673952 0.38377118 1.8770001
-0.4149293 0.3866336 1.891
-0.40762571 0.38438457 1.8800001
-0.41280413 0.39399415 1.927
-0.40800357 0.39419863 1.9280001
-0.41030443 0.40135473 1.9630001
-0.41056547 0.40667069 1.9890001
-0.41069123 0.41198665 2.0150001
-0.41329759 0.41996059 2.0540001
-0.40795505 0.41996059 2.0540001
-0.40829694 0.42588994 2.0830002
-0.40268552 0.42568544 2.082
-0.39822423 0.42670774 2.0870001
-0.39336053 0.42732114 2.0900002
-0.38829556 0.42773002 2.092
-0.38285416 0.42773002 2.092
-0.37687159 0.42711663 2.089
-0.37054899 0.42609438 2.0840001
-0.36425239 0.42507204 2.079
-0.35573798 0.42139179 2.0610001
-0.35037723 0.42139179 2.0610001
-0.34066403 0.41607583 2.0350001
-0.33471173 0.41525802 2.0310001
-0.32845581 0.41403124 2.0250001
-0.31792194 0.40728405 1.9920001
-0.31226969 0.40667069 1.9890001
-0.3067874 0.40626177 1.9870001
-0.30237815 0.40728405 1.9920001
-0.29674929 0.40667069 1.9890001
-0.29128262 0.40626177 1.9870001
-0.28582641 0.40585285 1.9850001
-0.28052193 0.40564838 1.9840001
-0.2750839 0.40523946 1.9820001
-0.26992863 0.40523946 1.9820001
-0.26490697 0.40544391 1.983
-0.2598801 0.40564838 1.9840001
-0.25484803 0.40585285 1.9850001
-0.24993654 0.40626177 1.9870001
-0.24513784 0.40687516 1.9900001
-0.24044411 0.40769297 1.9940001
-0.23572959 0.40851083 1.9980001
-0.2311096 0.40953311 2.003
-0.22657642 0.41075987 2.0090001
-0.22201201 0.41198665 2.0150001
-0.21730879 0.41300893 2.02
-0.21362938 0.41607583 2.0350001
-0.20833628 0.41607583 2.0350001
-0.20304316 0.41607583 2.0350001
-0.19765288 0.41587138 2.0340002
-0.19226779 0.41566691 2.033
-0.18688792 0.41546246 2.0320001
-0.18151323 0.41525802 2.0310001
-0.17597021 0.41464463 2.0280001
-0.17153701 0.41668922 2.0380001
-0.16615453 0.41648477 2.0370002
-0.15903997 0.41178221 2.0140002
-0.15364875 0.41137326 2.0120001
-0.14863676 0.41198665 2.0150001
-0.14097607 0.40503499 1.9810001
-0.13561773 0.40442163 1.978
-0.13034096 0.40401271 1.9760001
-0.12292032 0.39665213 1.9400001
-0.11781355 0.39644769 1.9390001
-0.11067642 0.38908714 1.9030001
-0.10439325 0.3841801 1.8790001
-0.097652413 0.37702399 1.8440001
-0.093208589 0.37845522 1.8510001
-0.08657939 0.37068576 1.8130001
-0.080644563 0.36516535 1.7860001
-0.074424662 0.3576003 1.7490001
-0.068477139 0.35044423 1.7140001
-0.063010491 0.34492379 1.687
-0.058275044 0.34287921 1.677
-0.053366579 0.33940339 1.6600001
-0.048044246 0.33245173 1.626
-0.043841906 0.3326562 1.6270001
-0.03895269 0.32713577 1.6
-0.034160443 0.32120645 1.5710001
-0.029940212 0.31977525 1.5640001
-0.025491716 0.31507269 1.5410001
-0.021497458 0.31527713 1.5420001
-0.017407278 0.3138459 1.5350001
-0.013397207 0.31343699 1.5330001
-0.0092625003 0.30852994 1.5090001
-0.0053092386 0.30689427 1.501
-0.0014022735 0.30628088 1.498
0.0024840906 0.30505413 1.4920001
0.0063392422 0.30382738 1.4860001
0.010170048 0.30280507 1.4810001
0.013738142 0.29667127 1.4510001
0.017463971 0.29585344 1.447
0.021154322 0.29483113 1.442
0.024835933 0.29401329 1.4380001
0.028536482 0.29360437 1.4360001
0.032226622 0.29319546 1.434
0.03590636 0.29278654 1.432
0.039603371 0.29258209 1.4310001
0.043355729 0.29278654 1.432
0.047080416 0.29278654 1.432
0.050876055 0.29319546 1.434
0.054644026 0.2933999 1.4350001
0.05845787 0.29380882 1.437
0.062282126 0.29421774 1.439
0.066070907 0.29442221 1.4400001
0.069816396 0.29442221 1.4400001
0.073561892 0.29442221 1.4400001
0.077253692 0.29421774 1.439
0.080884017 0.29380882 1.437
0.084503934 0.2933999 1.4350001
0.088051952 0.29278654 1.432
0.09152028 0.2919687 1.4280001
0.095034495 0.29135531 1.4250001
0.098463804 0.29053748 1.4210001
0.1018004 0.28951517 1.416
0.10518549 0.28869733 1.4120001
0.10854979 0.2878795 1.4080001
0.11181357 0.28685722 1.4030001
0.11521593 0.28624383 1.4000001
0.11860269 0.28563043 1.3970001
0.12197384 0.28501704 1.3940001
0.12541948 0.28460816 1.3920001
0.12904012 0.28460816 1.3920001
0.13266078 0.28460816 1.3920001
0.13637932 0.2848126 1.393
0.14020358 0.28522152 1.3950001
0.14414135 0.28583491 1.3980001
0.14820041 0.28665274 1.4020001
0.15217198 0.28726614 1.4050001
0.15627007 0.28808394 1.409
0.16152409 0.29094639 1.4230001
0.16557369 0.29155979 1.4260001
0.16892663 0.29094639 1.4230001
0.17287052 0.29135531 1.4250001
0.17645308 0.29115084 1.424
0.29120108 0.44326901 2.1680002
0.29670319 0.44306454 2.1670001
0.3020606 0.44265565 2.1650002
0.30726549 0.44204226 2.1620002
0.31245479 0.44142887 2.1590002
0.31762844 0.44081548 2.1560001
0.3226366 0.43999767 2.1520002
0.32777643 0.43938428 2.1490002
0.33290067 0.43877089 2.1460001
0.33816704 0.43836194 2.1440001
0.34358335 0.4381575 2.1430001
0.34915736 0.4381575 2.1430001
0.35473141 0.4381575 2.1430001
0.36064169 0.43856645 2.1450002
0.36673307 0.43917978 2.148
0.37266681 0.43958873 2.1500001
0.37878683 0.44020212 2.1530001
0.38510099 0.44101992 2.1570001
0.39143595 0.44183776 2.161
0.3979755 0.4428601 2.1660001
0.40435472 0.4436779 2.1700001
0.4111326 0.44490469 2.1760001
0.41755861 0.44572252 2.1800001
0.42400545 0.44654033 2.184
0.43047309 0.44735822 2.1880002
0.43656284 0.44776711 2.1900001
0.44286495 0.4483805 2.1930001
0.44918266 0.44899386 2.1960001
0.45530885 0.44940281 2.1980002
0.46123567 0.44960725 2.1990001
0.46695533 0.44960725 2.1990001
0.47203019 0.44899386 2.1960001
0.4773069 0.44858494 2.194
0.48279345 0.4483805 2.1930001
0.48760656 0.44756266 2.1890001
0.49284947 0.44715372 2.187
0.49762613 0.44633588 2.1830001
0.50238198 0.44551808 2.1790001
0.50735015 0.44490469 2.1760001
0.51253849 0.44449574 2.174
0.51747805 0.44388235 2.171
0.52264303 0.44347346 2.1690001
0.52804112 0.44326901 2.1680002
0.53589565 0.44510913 2.177
0.54155809 0.44510913 2.177
0.54722053 0.44510913 2.177
0.55288297 0.44510913 2.177
0.55854547 0.44510913 2.177
0.56109792 0.44265565 2.1650002
0.57013214 0.44531363 2.1780002
0.57606161 0.44551808 2.1790001
0.58172923 0.44551808 2.1790001
0.58739686 0.44551808 2.1790001
0.59279239 0.44531363 2.1780002
0.5979079 0.44490469 2.1760001
0.60273558 0.44429129 2.1730001
0.60782766 0.44388235 2.171
0.60697526 0.43917978 2.148
0.61142159 0.43836194 2.1440001
0.60635042 0.43079695 2.1070001
0.61008853 0.42957017 2.1010001
0.6123305 0.42732114 2.0900002
0.61481082 0.42527655 2.0800002
0.61962467 0.4248676 2.0780001
0.62412721 0.42425421 2.075
0.6298278 0.42445871 2.0760002
0.63553357 0.42466316 2.0770001
0.64433032 0.42691219 2.0880001
0.65100598 0.42773002 2.092
0.65770262 0.42854792 2.0960002
0.66441995 0.42936572 2.1000001
0.67115802 0.43018356 2.1040001
0.6814546 0.43325049 2.1190002
