# .PCD v0.7 - Point Cloud Data file format
VERSION 0.7
FIELDS x y z normal_x normal_y normal_z curvature
SIZE 4 4 4 4 4 4 4
TYPE F F F F F F F
COUNT 1 1 1 1 1 1 1
WIDTH 597
HEIGHT 1
VIEWPOINT 0 0 0 1 0 0 0
POINTS 597
DATA ascii
-0.7297985 0.71574712 1.8829634 -0.16940366 -0.98425364 0.05189757 0.0032979143
-0.7134192 0.71255475 1.8843524 -0.17155859 -0.98476225 0.028665066 0.0016183332
-0.70310801 0.71135867 1.8834816 -0.067475721 -0.99784011 0.015077418 0.0026700532
-0.68108743 0.71056116 1.8764752 0.09463384 -0.99329001 0.067099825 0.00065579469
-0.63478923 0.71502841 1.884069 -0.00031744389 -0.98690736 0.16531841 0.00087583816
-0.59099787 0.71366894 1.884973 -0.058761723 -0.9930169 0.10335498 0.0014231736
-0.57808512 0.71317071 1.8830296 -0.10749061 -0.99963218 0.059699714 0.018619362
-0.56706518 0.71196985 1.879046 -0.064323783 -1.0025127 0.044647545 0.017143982
-0.54925877 0.71357149 1.8846418 0.30210921 -0.94058305 -0.24817674 0.081240192
-0.49358377 0.72073466 1.8879774 -0.12159093 -0.99243599 0.023360103 0.0068997382
-0.44336846 0.71615773 1.8785878 0.21061528 -0.974123 0.10949675 0.010004435
-0.42785648 0.71932638 1.8839895 0.65796173 -0.81996554 0.04670693 0.013923258
-0.97484565 0.71972966 1.8779904 -0.42593518 -0.91843265 -0.20725439 0.030879799
-0.87350076 0.72612196 1.8787105 0.45763382 -0.78760797 -0.43246055 0.15512715
-0.86174482 0.72878563 1.8836833 -0.17337334 0.58790159 0.802522 0.11959436
-0.84772223 0.72824544 1.8806499 0.3329919 0.41744363 0.85123402 0.06497483
-0.83715773 0.72342277 1.8762444 0.49880776 0.37536049 0.78243899 0.020664774
-0.75370079 0.7191323 1.8812872 -0.026584184 -0.99432689 0.10337001 0.0041448027
-0.50101626 0.72049814 1.8783484 -0.030498162 -0.99661148 0.10826179 0.0082017211
-0.49093065 0.71961093 1.8770427 -0.15982239 -0.98749644 0.065305978 0.0087886164
-0.42274433 0.72564918 1.8758712 1.1301124 -0.63614923 -0.21314216 0.03192329
-0.86929882 0.73800218 1.873742 0.67531359 -0.32005504 -0.67879415 0.10496647
-0.86340421 0.7414028 1.879301 -0.33434397 0.32430348 0.91300672 0.072853021
-0.84810364 0.74217606 1.8791808 0.27323493 0.29097894 0.94170648 0.054980569
-0.86132073 0.75479579 1.8771634 -0.2764529 0.31669047 0.971457 0.094583988
-0.85253984 0.75208348 1.8775647 0.071792245 0.32999116 0.95150918 0.061627589
-0.99067515 -0.27217367 1.8897755 -0.015315305 -0.86128789 0.50792515 0.0064755762
-0.9857806 -0.27191895 1.8895824 0.037129749 -0.8418811 0.53878212 0.0061172671
-1.0358527 -0.257783 1.8917561 -0.43757185 -0.67596465 0.59790576 0.0085569145
-1.0261835 -0.26046044 1.8946376 -0.31781676 -0.75438964 0.57450104 0.0081066098
-1.0118238 -0.26331273 1.8973093 -0.21290018 -0.80491954 0.55389607 0.002705425
-0.99717742 -0.26642227 1.8977791 -0.071915045 -0.8310045 0.55169892 0.0049993205
-0.9815675 -0.26592505 1.8977265 0.12665373 -0.80797327 0.5769031 0.0033185114
-0.96845382 -0.26316422 1.8963604 0.23524036 -0.76008868 0.60624635 0.003291043
-0.95455343 -0.25972676 1.8941225 0.28383794 -0.72353947 0.62933081 0.0017970883
-0.77038085 -0.25984976 1.8952355 -0.40894586 -0.77009976 0.50289047 0.065256573
-0.7578944 -0.26168001 1.8979166 -0.074888632 -0.79756272 0.60525101 0.036893331
-0.74335563 -0.26060683 1.8960096 0.2514044 -0.73274529 0.63577706 0.042946849
-1.040627 -0.24918517 1.8977307 -0.64371258 -0.64526302 0.43868542 0.0024587081
-1.0307956 -0.25418967 1.9005725 -0.41260302 -0.74545205 0.52407318 0.0055407882
-0.96339047 -0.25468761 1.9039356 0.28920582 -0.74024701 0.60700452 0.0011418029
-0.95193762 -0.25193501 1.9010351 0.29977632 -0.73517257 0.60828286 0.0012367626
-0.937195 -0.24934256 1.8965359 0.26314953 -0.73336822 0.62693465 0.0030712672
-0.92331743 -0.24634451 1.8945414 0.20944636 -0.7148037 0.66769558 0.010439031
-0.90836912 -0.2439464 1.8925534 0.17064741 -0.73790395 0.6537286 0.015944952
-0.87718713 -0.24488512 1.8940459 -0.042230889 -0.79987222 0.60077387 0.0096933376
-0.86414951 -0.24584705 1.8927237 0.12484488 -0.73669994 0.66673994 0.014420875
-0.85104501 -0.24323313 1.8910475 0.23772834 -0.62437707 0.74542511 0.010766599
-0.78051442 -0.24593616 1.8916419 -0.62535161 -0.41105172 0.67058015 0.042021122
-0.7746439 -0.25083131 1.8997904 -0.60016447 -0.43531251 0.69266444 0.059177473
-0.74110705 -0.25071701 1.9018131 0.41053 -0.3430368 0.84554005 0.051620454
-0.73075742 -0.24758042 1.895134 0.60011935 -0.236028 0.76432091 0.037916541
-1.0466197 -0.23991185 1.9021685 -0.74726951 -0.61478078 0.36101231 0.003276956
-0.91882908 -0.2404884 1.9001305 0.19530374 -0.83332485 0.51983035 0.018344181
-0.90799016 -0.23933035 1.8971846 0.11614046 -0.81973565 0.56372362 0.03108754
-0.89211696 -0.24047548 1.8956946 -0.053390592 -0.83240676 0.55197054 0.0078926021
-0.87774616 -0.24009347 1.9013784 -0.0023518605 -0.83202523 0.56016034 0.01714284
-0.86183739 -0.23741977 1.9005201 0.25555313 -0.7048828 0.66224188 0.0092277471
-0.84783852 -0.23326121 1.8968529 0.33961976 -0.60409033 0.72096342 0.0026963328
-0.83416724 -0.23100632 1.8917725 0.3004145 -0.55888975 0.77316082 0.0030203271
-0.78437203 -0.23107146 1.8922142 -0.47578812 -0.29385158 0.83403623 0.064726718
-0.77525717 -0.23179521 1.9009484 -0.48492071 -0.17475365 0.85980219 0.080743663
-0.75971621 -0.23022224 1.906028 -0.087363407 -0.048770349 0.99732846 0.08345525
-0.74254787 -0.22969799 1.9015336 0.42787516 -0.022945696 0.90965402 0.073032461
-0.7327472 -0.23528858 1.8965042 0.58241135 -0.06293036 0.81289208 0.030081593
-0.8431077 -0.22486417 1.9011788 0.35812676 -0.62108624 0.69715762 0.0011883923
-0.83280599 -0.22042912 1.8998166 0.29678583 -0.64805132 0.70179391 0.0015511675
-0.81786352 -0.21942198 1.896162 0.13560349 -0.67486382 0.72563291 0.0022581387
-0.8022083 -0.21976349 1.8954148 -0.081298873 -0.65501744 0.75146037 0.0052281222
-0.78756982 -0.21916319 1.8979075 -0.306261 -0.53669906 0.78742218 0.038534444
-0.77410156 -0.22215134 1.9012423 -0.35900524 -0.32626581 0.87510002 0.05817889
-0.75780886 -0.22546123 1.9053378 -0.019666027 -0.12101899 1.0041956 0.092458665
-0.74158704 -0.22234631 1.9015089 0.44839296 -0.22336638 0.86604595 0.050322689
-0.72962832 -0.2169258 1.8939987 0.55448627 -0.34407967 0.75869286 0.017766703
-0.72682697 -0.20662144 1.899087 0.40901673 -0.6815986 0.60917634 0.047583308
-0.71278292 -0.2037171 1.8956665 0.39054915 -0.73045361 0.56806111 0.02201272
-0.69848931 -0.19947267 1.8918233 0.43085617 -0.74822497 0.50676161 0.012640893
-0.67935669 -0.18725073 1.8933375 0.50692207 -0.67614973 0.53497773 0.0078872871
-0.67180532 -0.18387219 1.8907146 0.51810318 -0.63280284 0.57644731 0.0069261249
-0.67512953 -0.17599556 1.9036397 0.62227786 -0.53513718 0.57316864 0.0093442146
-0.66782087 -0.1748756 1.8966768 0.57561821 -0.53324199 0.62007815 0.0078590447
-0.65666962 -0.16956413 1.891181 0.5579524 -0.46871069 0.68559366 0.0052763303
-0.33410898 -0.1676016 1.8927097 -0.30992332 -0.70615119 0.6395424 0.0050658104
-0.32343152 -0.16944487 1.8964593 -0.27805114 -0.76011258 0.58845204 0.0054367022
-0.30747205 -0.17220294 1.8974395 -0.1576103 -0.83222181 0.53192717 0.0089830058
-0.29533514 -0.17332169 1.8974426 -0.045986228 -0.87086046 0.49069136 0.010249712
-0.27875084 -0.17385842 1.8959675 0.21424887 -0.87240529 0.43949893 0.025350461
-0.26476303 -0.16903086 1.8950862 0.33813 -0.82053012 0.46469474 0.024446921
-0.24868198 -0.1625874 1.8957652 0.077349529 -0.92037988 0.38883862 0.036982935
-0.22949076 -0.16550381 1.8936231 0.028848652 -0.8916083 0.45203173 0.021922288
-0.21681407 -0.16729888 1.8914899 -0.028063443 -0.85315156 0.52743977 0.012945501
-0.20502634 -0.16404398 1.8964324 -0.0309508 -0.85847867 0.51223087 0.012206567
-0.18448032 -0.16446449 1.8969586 -0.0099575995 -0.8391251 0.54449314 0.012087089
-0.17059173 -0.16603781 1.8961425 0.044478454 -0.82092512 0.56959957 0.012041599
-0.16081163 -0.16450296 1.8966118 0.21631256 -0.79536349 0.56635517 0.016070424
-0.66081494 -0.15576747 1.9031888 0.61585534 -0.38312316 0.68847924 0.0018228599
-0.6533854 -0.15747373 1.8952285 0.59504616 -0.39043498 0.70249176 0.0024731499
-0.36152178 -0.1545244 1.8898813 -0.37154338 -0.48293114 0.79294336 0.0025104536
-0.35066792 -0.15620506 1.8939631 -0.40325868 -0.53313684 0.74408942 0.0056030918
-0.34036234 -0.1590735 1.8981403 -0.41627821 -0.6073696 0.67690825 0.010041591
-0.32958177 -0.16066466 1.9039732 -0.37578747 -0.68389302 0.62556708 0.0075582177
-0.25727427 -0.16460371 1.8963947 0.29244179 -0.80927366 0.51911539 0.026960414
-0.24904689 -0.1624469 1.896072 0.082799926 -0.92071092 0.38264796 0.040052783
-0.23170091 -0.1626801 1.8979876 0.018996567 -0.91925931 0.40218118 0.033280551
-0.2182564 -0.16142723 1.8983252 0.058724795 -0.89690608 0.43998861 0.026343076
-0.19967027 -0.16591129 1.8927298 -0.02999874 -0.87115246 0.4904291 0.010542433
-0.18539687 -0.16286436 1.9002243 0.0076661129 -0.83454025 0.55107725 0.019065594
-0.17042434 -0.1612864 1.9025072 0.091807745 -0.79329932 0.60383213 0.014737193
-0.15493847 -0.16176724 1.8975245 0.29327929 -0.78155446 0.55205488 0.013178076
-0.14151195 -0.15520944 1.8961458 0.31219488 -0.80336392 0.50726444 0.015747277
-0.12675644 -0.14970742 1.8966045 0.1702565 -0.87416345 0.45521277 0.034596022
-0.11655018 -0.1481847 1.8941756 0.20079915 -0.88997006 0.41000482 0.020174008
0.23347165 -0.15234271 1.8928101 -0.076964453 -0.68260872 0.72683036 0.010326894
0.24342957 -0.15296803 1.8932468 0.14144176 -0.66072148 0.73799884 0.040824298
0.3343989 -0.15424453 1.8905014 -0.28237966 -0.62264532 0.75906974 0.0028366393
-0.65237385 -0.14395615 1.9015591 0.60650879 -0.36779717 0.7048983 0.00028953588
-0.64134967 -0.14096889 1.8938693 0.67633653 -0.31837052 0.66466266 0.0037860773
-0.37840024 -0.13878611 1.8911949 -0.44176307 -0.41180658 0.79766434 0.0034738677
-0.3668806 -0.14203544 1.893967 -0.38529995 -0.42007202 0.82165515 0.0025336514
-0.35469976 -0.14229982 1.8995398 -0.46389216 -0.42653677 0.7765547 0.0047914726
-0.13808085 -0.14773056 1.9043765 0.29841417 -0.77762717 0.55410498 0.018873256
-0.12552994 -0.1476499 1.9003401 0.13687907 -0.8967061 0.42156571 0.031229541
-0.10901357 -0.14789324 1.8915749 0.20126458 -0.88359523 0.42334202 0.016201239
-0.095776528 -0.14325954 1.8959213 0.23770568 -0.87972438 0.41193062 0.012272852
-0.082610764 -0.14037475 1.8961991 0.2439395 -0.84064513 0.48363224 0.0028641166
-0.067774765 -0.13738111 1.8943261 0.19338973 -0.80762273 0.55735469 0.0027720998
-0.052036606 -0.13516727 1.8933268 0.13189852 -0.74429935 0.65535682 0.005500169
-0.039775483 -0.13464771 1.8911109 0.17964786 -0.65253329 0.73995173 0.0063711251
0.03911823 -0.13752344 1.8934069 -0.44590211 -0.68420643 0.58492625 0.022521524
0.051181763 -0.14545611 1.8926481 -0.26791552 -0.82237947 0.5023483 0.019764889
0.06614355 -0.14391929 1.8950984 0.059068471 -0.886666 0.46728721 0.01943833
0.07763119 -0.14187528 1.8927597 0.20766045 -0.89333832 0.40103683 0.012267814
0.095300518 -0.13611679 1.8944293 0.25121546 -0.90927386 0.33217192 0.0095812595
0.10534336 -0.13478951 1.8919208 0.31518424 -0.91132718 0.26533213 0.0094956048
0.20774366 -0.13623013 1.892027 -0.50365365 -0.49489957 0.7114706 0.022599328
0.21950774 -0.14247629 1.8980691 -0.35291556 -0.4347758 0.83031225 0.02979245
0.23436968 -0.14337307 1.9010702 -0.021349857 -0.43337828 0.90227062 0.040597949
0.24953549 -0.14232963 1.8993583 0.32039294 -0.38084462 0.86788779 0.03905024
0.25978443 -0.14029002 1.8916812 0.40478811 -0.41977119 0.81693143 0.027882827
0.30836639 -0.13662602 1.8930583 -0.33616015 -0.61725652 0.71168268 0.0035081655
0.32274005 -0.1418719 1.8963441 -0.37685591 -0.62483591 0.68381047 0.0012488591
0.33359337 -0.14716092 1.8977513 0.63262713 0.53769618 -0.55871618 0.026763203
-0.64603072 -0.13097548 1.9031091 0.65285975 -0.35188383 0.67087752 0.003417029
-0.6370452 -0.12536912 1.8963839 0.71749192 -0.32454884 0.6164335 0.0034926836
-0.39140207 -0.12280029 1.8911767 -0.56776732 -0.38149229 0.73026741 0.006283429
-0.38222426 -0.1253127 1.8955942 -0.44043186 -0.37763283 0.81450236 0.0039447392
-0.3684597 -0.12579472 1.9000632 -0.39809367 -0.37499753 0.83724332 0.0024644909
-0.35930765 -0.12859052 1.9033223 -0.4717434 -0.37436423 0.79832751 0.0044418019
-0.064580858 -0.13104327 1.9021434 0.23543274 -0.78508025 0.57291687 0.0025433977
-0.051181063 -0.12893702 1.9003636 0.21674292 -0.73714805 0.64016378 0.0051148329
-0.036214735 -0.12722448 1.8966086 0.27489299 -0.63429332 0.72277713 0.0079236962
-0.023827968 -0.12471048 1.89316 0.34682313 -0.53917813 0.7675882 0.005741402
0.02500603 -0.12222374 1.8941513 -0.5008893 -0.56738156 0.65535617 0.012135413
0.033586644 -0.12678398 1.8983592 -0.54683036 -0.58994824 0.59471869 0.013013229
0.097120017 -0.13408689 1.9013966 0.2869488 -0.89136833 0.35128146 0.013083279
0.11492863 -0.12915678 1.9030564 0.46203116 -0.78728271 0.40834859 0.026880154
0.12424412 -0.12278533 1.9004978 0.59554845 -0.68311566 0.42746875 0.02609133
0.18066375 -0.11824229 1.8886876 -0.43919683 -0.57778472 0.68814856 0.020601682
0.18884343 -0.11845722 1.8922057 -0.47629207 -0.51321226 0.71410161 0.020566691
0.20493725 -0.12616576 1.8965331 -0.38878775 -0.540842 0.7548638 0.041016094
0.21692787 -0.12573278 1.9008088 -0.26715863 -0.49756235 0.82703596 0.051787574
0.23471691 -0.12297729 1.9039466 0.11390197 -0.35066378 0.93181431 0.072533891
0.25106904 -0.12463023 1.8992103 0.27510756 -0.3071408 0.91123086 0.037572589
0.26339915 -0.12604183 1.8944257 0.26366788 -0.39153832 0.88445681 0.032811712
0.27780941 -0.12533017 1.8931454 0.019624092 -0.52588558 0.85067582 0.021227328
0.29335284 -0.12635243 1.8947259 -0.20532598 -0.56368369 0.80024284 0.007277139
0.30673072 -0.12744889 1.8997433 -0.33752367 -0.55015033 0.76410919 0.0045492835
0.31909874 -0.13085952 1.9038351 -0.36569592 -0.56648201 0.73849207 0.0030666359
-0.63409263 -0.11194341 1.8989658 0.7032963 -0.36170775 0.61359578 0.0082543874
-0.62788314 -0.10800766 1.8924446 0.63138551 -0.49773574 0.61461782 0.011588318
-0.39615527 -0.10997759 1.8936708 -0.57994765 -0.35794833 0.73297489 0.0041694809
-0.38390169 -0.11150087 1.9006075 -0.43075797 -0.35191295 0.83122653 0.0041336701
-0.37255806 -0.1146366 1.903504 -0.4012194 -0.36166579 0.84159136 0.0018652754
-0.021310465 -0.11194698 1.8992598 0.40973777 -0.62331367 0.6685881 0.018670259
-0.0084218206 -0.10971481 1.8944808 0.22317724 -0.60935336 0.76452357 0.019010615
0.0078219315 -0.10900629 1.8952764 -0.21268301 -0.65694249 0.72586614 0.018378133
0.0203561 -0.11239575 1.8993264 -0.45248836 -0.63071972 0.63196105 0.010886898
0.13148552 -0.11555804 1.897799 0.62884861 -0.62981308 0.45600429 0.010805346
0.14057982 -0.10698144 1.8945318 0.48193568 -0.69119596 0.54677474 0.010185157
0.17624715 -0.10629879 1.8926277 -0.36193469 -0.52769792 0.76882845 0.01618455
0.18666291 -0.11058495 1.897158 -0.50310701 -0.4960902 0.70810127 0.021277009
0.22519881 -0.11774447 1.9067801 0.01684643 -0.60079342 0.80965585 0.063140549
0.23537125 -0.11754195 1.9050838 0.16124076 -0.44123414 0.88479102 0.052574523
0.25078696 -0.11508543 1.9021215 0.24802907 -0.45841438 0.85353661 0.039589498
0.26412722 -0.11352028 1.9009249 0.12695633 -0.52141011 0.84386456 0.017123964
0.27958363 -0.1126271 1.9009275 -0.06774728 -0.54576236 0.83528727 0.0032847747
0.29298159 -0.1140729 1.9022466 -0.2219218 -0.5300988 0.81850833 0.0053477963
-0.62777972 -0.097612344 1.901724 0.72133762 -0.43900898 0.5368436 0.011545445
-0.62315422 -0.097737998 1.8962826 0.71477437 -0.43716401 0.54621679 0.01236319
-0.40709618 -0.094288826 1.8914677 0.66132689 0.39163211 -0.64131933 0.022464821
-0.39793792 -0.096189082 1.8982806 -0.56639051 -0.34959155 0.74674386 0.0036841438
-0.38878438 -0.098730817 1.9029561 -0.46220618 -0.35416016 0.81320077 0.0030038978
-0.0067764805 -0.099217497 1.9027882 0.15383616 -0.70012742 0.71706909 0.042402387
0.0046909899 -0.10066523 1.9029794 -0.18173537 -0.68300426 0.71684092 0.025922785
0.14547418 -0.099957325 1.8998677 0.39592817 -0.70269316 0.59128654 0.01194155
0.15755282 -0.096407332 1.8975531 0.17234936 -0.71336162 0.68508834 0.016871192
0.1717896 -0.095508821 1.8979489 -0.19481988 -0.62737584 0.75626469 0.026097596
0.18553734 -0.098340325 1.9017148 -0.47942668 -0.49001053 0.72840619 0.021747734
-0.61502939 -0.078999609 1.9003264 0.7875421 -0.29758462 0.54044908 0.016836487
-0.61134022 -0.080888703 1.8931884 0.77939337 -0.34791884 0.52946258 0.013376105
-0.42254195 -0.073880777 1.8901101 0.78710502 0.54653037 -0.31395003 0.036973801
-0.41063783 -0.080470987 1.8959081 -0.5660885 -0.53218126 0.63625634 0.029173296
-0.40013561 -0.082981102 1.902227 -0.51391447 -0.45906511 0.72476679 0.007517105
-0.61526871 -0.071789414 1.9038305 0.82315207 -0.12161079 0.5576303 0.02566156
-0.60926062 -0.066368051 1.8968296 0.79960591 -0.048115917 0.59962839 0.021937167
-0.42436591 -0.068839587 1.8957809 0.67172378 0.67042685 -0.33724144 0.04412014
-0.4155212 -0.071598738 1.9016042 -0.55966109 -0.63327897 0.53613126 0.046750635
-0.62311435 -0.046495974 1.9016212 0.62052977 0.68242788 0.40051559 0.036712315
-0.61112851 -0.05453309 1.8965447 0.74745113 0.52273029 0.48665887 0.065373473
-0.63918126 -0.036791235 1.8969949 -0.55624902 -0.77908599 -0.30125132 0.0052033653
-0.44424567 -0.037981216 1.8962919 0.89240807 0.44971725 -0.057469569 0.0059376322
-0.66106331 -0.017161751 1.9029633 0.75343144 0.65268767 0.18565558 0.0037680808
-0.65189922 -0.02190711 1.891 0.68567741 0.68567622 0.24432483 1.1836188e-13
-0.45141706 -0.019443886 1.896506 0.96373522 0.2928158 -0.21161625 0.0034615421
-0.44866285 -0.027452148 1.8999633 0.92799658 0.37290382 0.016984789 0.0061933296
-0.19807813 -0.022022959 1.901 3.6778999e-08 -0.99993289 -0.011583859 0
-0.18544459 -0.022896508 1.8990679 0.010474664 -0.77622378 0.6303705 0.0056379749
-0.17346311 -0.021021586 1.9011775 0.010474664 -0.77622378 0.6303705 0.0056379749
-0.6655153 -0.011702589 1.9043447 0.81171936 0.45468029 0.36721262 0.0013427675
-0.45467395 -0.0072661652 1.8977361 0.95039439 0.32841265 -0.065452129 0.0019608589
-0.6802662 0.022636048 1.8956236 0.74770743 0.56115794 0.36360258 0.0066568688
-0.46119803 0.022413911 1.8956724 0.98522735 0.14366555 0.093581036 0.00013759494
-0.69855475 0.039247312 1.8956987 0.72057128 0.56457633 0.40311241 0.01768719
-0.68660253 0.031877726 1.8908238 -0.67364311 -0.64900696 -0.35986024 0.0049058506
-0.46334183 0.032397587 1.9039937 0.98723513 0.12827164 0.095457956 0.00015082562
-0.71050578 0.057124652 1.9029808 0.85898376 0.20533918 0.46930766 0.0051072417
-0.70979053 0.063981526 1.8974655 0.92056847 0.25001425 0.31679013 0.005787462
-0.73782963 0.096416712 1.8970001 -0.52824372 -0.79031658 -0.32328847 0.00087310298
-0.72553146 0.091389686 1.8910614 -0.49415705 -0.83712786 -0.24036984 0.0017925606
-0.7551952 0.10634279 1.9029098 -0.53895688 -0.80059832 -0.26185447 0.00037728698
-0.51614064 0.61013019 1.9028856 0.18179943 0.45625049 0.87155265 0.033947375
-0.50240791 0.60864359 1.9021766 0.022774581 0.49411753 0.87959546 0.029846061
-0.48854434 0.60909426 1.9021121 -0.15042624 0.49565399 0.8573494 0.058980506
-0.47810528 0.61206818 1.9042119 -0.13098629 0.47325754 0.8716976 0.044578943
-0.53045982 0.62284577 1.9027543 0.22128244 0.23638035 0.94914162 0.021485636
-0.51665449 0.62030703 1.90004 0.13124208 0.14215139 0.98272556 0.029827977
-0.5015412 0.61990565 1.8986927 0.0091962563 0.090657867 0.99825615 0.032339975
-0.48689169 0.62014425 1.8994496 -0.092779614 0.13245291 0.9882732 0.029786764
-0.47247526 0.62065154 1.9010119 -0.12221695 0.23808233 0.96492779 0.060785025
-0.45802489 0.62190253 1.9035441 -0.044224985 0.1638938 0.98598617 0.019813389
-0.44337082 0.62135231 1.9034275 -0.29225516 0.21388787 0.93267268 0.039911669
-0.43455696 0.62453616 1.9056073 -0.45909154 0.17686056 0.87503147 0.045727078
-0.54429817 0.63725698 1.9034699 0.1751008 0.098947942 0.97987509 0.014970622
-0.53209788 0.63580525 1.9015602 0.091760106 -0.012407048 0.99815226 0.018876102
-0.51723158 0.63583863 1.9020594 -0.0068154712 -0.18454805 0.98350966 0.011097072
-0.50235897 0.63335633 1.9018157 -0.032135479 -0.24245864 0.97080845 0.011095319
-0.48753113 0.6332435 1.9023436 -0.031103782 -0.26381245 0.96544236 0.01162667
-0.47288728 0.63365072 1.9023992 -0.027367413 -0.20050198 0.98254013 0.026617138
-0.45789668 0.63332719 1.9026049 -0.010590028 -0.11583804 0.99326479 0.022333847
-0.44390917 0.63460565 1.9028558 -0.18677257 -0.12682992 0.97525007 0.021950366
-0.54570466 0.65037423 1.903704 0.1086882 -0.030570973 0.99433595 0.011282475
-0.53392845 0.65052056 1.9036398 -0.067746766 -0.14674228 0.98686099 0.01029623
-0.54409367 0.68426847 1.9039729 0.022699887 0.15360925 0.99959403 0.052275304
-0.53759456 0.68605316 1.9043428 -0.2470123 0.14178686 0.97031701 0.048052195
-0.83013779 0.70157325 1.9000386 -0.21898505 -0.87273967 -0.43850893 0.038952533
-0.81761861 0.7011047 1.8989977 0.13477029 -0.89468986 -0.4302913 0.048496198
-0.80961937 0.70374936 1.9025247 0.38364181 -0.82139236 -0.44552973 0.06899038
-0.55604631 0.70306301 1.90168 0.28903794 0.64845151 0.71342152 0.10338847
-0.5463506 0.69698894 1.9002814 0.054261219 0.40632892 0.91339028 0.078401282
-0.53549105 0.69780916 1.9025012 -0.35899115 0.33063775 0.87499279 0.063342765
-0.92422199 0.71981972 1.8999711 -0.056870744 -0.99581772 0.090513654 0.0023498372
-0.90814346 0.71864319 1.8971931 0.03587009 -0.99552506 0.090606198 0.0072669084
-0.89033538 0.71937078 1.8989642 0.012071601 -0.99577576 -0.093267262 0.026438834
-0.87221742 0.71895093 1.8957541 -0.13087268 -0.93736547 -0.33429468 0.047567878
-0.8623715 0.71564275 1.8996396 -0.22955802 -0.87928152 -0.42215219 0.030962329
-0.84831071 0.71011508 1.8982282 -0.33647442 -0.80415326 -0.49081805 0.01951883
-0.83869684 0.70503229 1.9019983 -0.31293619 -0.86112523 -0.40101293 0.0092315394
-0.81620508 0.70389616 1.8900017 0.16749445 -0.9379608 -0.31246641 0.031181945
-0.80142576 0.71100014 1.8970145 0.41563681 -0.8908028 -0.19718267 0.034476057
-0.7877413 0.71839809 1.8986663 0.30929941 -0.9662419 0.037600219 0.035527073
-0.7757991 0.71997666 1.8983566 0.20819221 -0.97481483 0.087932982 0.013507738
-0.7329725 0.71761698 1.8970256 -0.20970954 -0.97561914 0.065121517 0.0042483294
-0.70928758 0.71203387 1.9000311 -0.17185323 -0.9836669 -0.061782181 0.017228037
-0.69807863 0.71272296 1.8969268 -0.11378554 -1.0000826 -0.067640096 0.032682691
-0.68220073 0.71178734 1.9007498 0.032552093 -0.8875398 -0.53679681 0.064152695
-0.66811264 0.71386862 1.9000877 0.029857418 -0.97475511 -0.31147477 0.087380439
-0.65705967 0.7168228 1.9011791 0.25600788 -0.99577677 -0.22062741 0.12367227
-0.64051116 0.71808839 1.8928351 0.00085284282 -0.99980241 0.14867479 0.021376006
-0.62271839 0.7162016 1.8919821 -0.01903796 -0.98828053 0.15167139 0.00051076408
-0.60797715 0.71577334 1.8920486 -0.053567123 -0.98649776 0.1556609 0.00042920944
-0.57610536 0.71545255 1.9016607 -0.30822173 -0.94123596 -0.16681045 0.044969168
-0.56176478 0.70843214 1.899196 -0.3587479 -0.82927519 -0.47216228 0.093226805
-0.54630631 0.70990044 1.8927166 0.12508328 -0.8795079 -0.4921256 0.12665215
-0.53219807 0.71254182 1.8968607 -0.45852551 0.70288336 0.65250111 0.049544655
-0.52258098 0.71812391 1.9024154 -0.34315282 0.77297962 0.55887085 0.05391831
-0.48403776 0.71695697 1.9018046 -0.19057076 -0.92533338 -0.33852527 0.05954051
-0.4722513 0.71608007 1.9001157 -0.028770037 -1.0104091 -0.12640874 0.035297256
-0.45677641 0.71642882 1.8974668 0.2236588 -1.034077 0.19336408 0.021547243
-0.44511271 0.71909738 1.900473 0.15983547 -0.98928529 -0.062790699 0.021915479
-0.98327851 0.72643816 1.8994963 -0.20496614 -0.97812879 0.035396405 0.014168254
-0.96696377 0.7227242 1.8965001 -0.094589397 -0.97486424 0.20517752 0.00030754757
-0.95588046 0.72144741 1.8940697 -0.11267339 -0.97766715 0.18070073 0.0002521014
-0.93366593 0.72043145 1.9040122 -0.10256 -0.98859674 0.13782759 0.0035124528
-0.90702814 0.71866781 1.8901436 0.063575819 -0.99316055 0.098268673 0.010367817
-0.89130652 0.71960473 1.8920065 0.095088348 -0.99587566 -0.0021913438 0.016758731
-0.87290907 0.72188365 1.8901838 0.026454341 -0.93630731 -0.35571387 0.096735053
-0.86653388 0.72125751 1.8893287 -0.0034965463 -0.86088169 -0.51063162 0.087770462
-0.77174467 0.72013164 1.8957205 0.13140967 -0.98480439 0.1247112 0.0071066222
-0.74503446 0.72083491 1.9029403 -0.15800978 -0.98226762 0.10452837 0.0045135929
-0.650424 0.71916747 1.9027082 0.28676933 -0.96498829 -0.23141448 0.1347409
-0.52691132 0.72088611 1.8936399 0.2792533 -0.89827317 -0.36733213 0.080798246
-0.51636726 0.7225495 1.8987943 0.27083033 -0.91602129 -0.32435504 0.070902519
-0.50296623 0.72290164 1.8950475 -0.091251552 -0.99319857 -0.10939154 0.021103123
-0.4908368 0.71863312 1.9004545 -0.14106567 -0.98649019 -0.083832808 0.016355688
-0.43824282 0.71957606 1.9039037 0.35698083 -0.93290091 -0.11769128 0.049980924
-1.0107408 -0.25631088 1.9092138 -0.20015471 -0.81417143 0.54585481 0.0032028754
-0.99849612 -0.25796062 1.9096386 -0.071719453 -0.82998651 0.55331892 0.0075691566
-0.98224598 -0.25734544 1.909492 0.16318701 -0.78932315 0.59248739 0.0068786605
-0.96981627 -0.255229 1.9070479 0.28015566 -0.74821609 0.60260147 0.0032833435
-0.75875014 -0.25518954 1.9065121 -3.3672142e-05 -0.70787054 0.83998662 0.070636511
-1.0389651 -0.24235785 1.9110907 -0.56256241 -0.70381302 0.44545045 0.005503858
-1.0265812 -0.24932072 1.9110743 -0.37743488 -0.76976246 0.51679552 0.0058356929
-1.0135428 -0.25146574 1.9146875 -0.22386919 -0.80680668 0.5467692 0.0038889681
-0.99815673 -0.2522774 1.91888 -0.048426475 -0.82224745 0.56736684 0.013846793
-0.98533285 -0.25214776 1.9183692 0.15392381 -0.79062963 0.59383261 0.011086013
-0.96657252 -0.24903627 1.9124908 0.29766387 -0.73649818 0.60747445 0.0012338032
-0.95377213 -0.24302389 1.9126322 0.25241697 -0.77023947 0.58586127 0.0033190937
-0.93799651 -0.24152859 1.9076897 0.2036954 -0.82926548 0.52145302 0.0098248776
-0.87970847 -0.23824851 1.9038051 0.051814042 -0.84003687 0.54084617 0.018590538
-0.77050251 -0.2462492 1.9060726 -0.44958395 -0.2374118 0.88321745 0.064544432
-0.75720662 -0.24676587 1.9109118 0.03011718 -0.18634598 0.9830752 0.079861566
-0.74564159 -0.24394721 1.9064339 0.33836707 -0.11826345 0.93368489 0.039379124
-1.0508468 -0.22882012 1.9145256 -0.74234581 -0.600595 0.34750658 0.0026465482
-1.0458554 -0.23462744 1.9145217 -0.67410183 -0.64053822 0.39346817 0.0031072481
-0.94547844 -0.23682681 1.9180857 0.11672275 -0.84242326 0.52756202 0.0086464928
-0.93485224 -0.23670112 1.9167588 0.09653531 -0.88884735 0.44865242 0.0099212695
-0.89203691 -0.23333479 1.9135152 0.1423575 -0.87770259 0.4597432 0.017822677
-0.87796921 -0.23440799 1.9107311 0.090943761 -0.83625466 0.55487877 0.0189467
-0.86337399 -0.22802769 1.9109685 0.34500965 -0.66870695 0.66152948 0.0063076378
-0.84990925 -0.2252063 1.9050313 0.37525943 -0.63029277 0.67969716 0.00086974865
-0.76831961 -0.23505488 1.9044374 -0.34277427 -0.042773619 0.94112676 0.067648254
-0.75872809 -0.23570444 1.9070201 -0.012039643 -0.0054477351 1.0032498 0.051471487
-0.74534768 -0.23523711 1.9041772 0.3759532 -0.0012211046 0.92712152 0.03115307
-0.86227095 -0.22156911 1.9160705 0.37389484 -0.67219955 0.63925439 0.0022724951
-0.84843677 -0.21605998 1.9126383 0.37054008 -0.65552646 0.6580407 0.00064769835
-0.83284706 -0.21201696 1.908574 0.27549744 -0.69800067 0.66119701 0.0017233648
-0.81537479 -0.21045877 1.9054393 0.10818353 -0.71158129 0.69437397 0.0037278761
-0.80037278 -0.2101755 1.9048306 -0.033994909 -0.67299825 0.74100614 0.0073790182
-0.7846275 -0.21147864 1.9057224 -0.19890299 -0.56942987 0.79818094 0.026673326
-0.7709415 -0.21374193 1.9070072 -0.17713197 -0.49744448 0.85129815 0.040866468
-0.75697756 -0.21550938 1.9078245 0.0051452732 -0.43262935 0.90721589 0.055164129
-0.74476039 -0.21260177 1.906655 0.31597394 -0.51718795 0.79916322 0.05985463
-0.84072089 -0.20685926 1.9180897 0.31312424 -0.69068497 0.65189958 0.0015018128
-0.82980001 -0.2047736 1.9155967 0.24349643 -0.71457338 0.65591997 0.0016071632
-0.81756067 -0.20434372 1.9129283 0.16216813 -0.71060711 0.6846714 0.0015168176
-0.80248773 -0.20054254 1.9131659 0.041281778 -0.7365489 0.67532802 0.0090443566
-0.78743678 -0.20131432 1.9136671 -0.094560251 -0.66404057 0.74195701 0.010725335
-0.77358884 -0.20283124 1.9153762 -0.16737784 -0.62764937 0.76038545 0.0046937615
-0.7593044 -0.20447265 1.9162594 -0.10144928 -0.68008661 0.72726166 0.010961197
-0.74352443 -0.20497507 1.914577 0.18267481 -0.75060636 0.63708782 0.028870912
-0.72707969 -0.20059398 1.9113573 0.32103559 -0.81276017 0.48679683 0.021050546
-0.71102315 -0.19561486 1.9164606 0.28043264 -0.84526014 0.45674089 0.017338216
-0.70204854 -0.1945218 1.9111793 0.40036699 -0.82240951 0.41096824 0.01892587
-0.79122496 -0.19351426 1.9205863 0.0095412824 -0.72367936 0.690615 0.016393309
-0.70464647 -0.19185241 1.9185262 0.35556164 -0.80940914 0.46792719 0.016452065
-0.69747853 -0.18938689 1.9156872 0.49818793 -0.74804258 0.43905681 0.012919237
-0.68512851 -0.18071605 1.9123626 0.64836031 -0.59232438 0.48458424 0.016502706
-0.67810565 -0.16921528 1.9121072 0.67920542 -0.44015214 0.58862221 0.011675264
-0.67216796 -0.16521135 1.908656 0.63869274 -0.40787193 0.65454394 0.0085194819
-0.31726402 -0.1650175 1.905437 -0.2900252 -0.76567721 0.57496709 0.006539362
-0.31032771 -0.16568169 1.9077696 -0.27042767 -0.79020512 0.5509631 0.0081027048
-0.29297107 -0.16643839 1.9153887 -0.10420036 -0.86568058 0.49073726 0.021213941
-0.27692771 -0.16645908 1.9159061 0.27215046 -0.86688823 0.42585614 0.021585099
-0.26652545 -0.16370386 1.9081705 0.24265645 -0.92754608 0.28663465 0.030327072
-0.67744488 -0.15690112 1.9174662 0.67672169 -0.32362518 0.6638009 0.0079179797
-0.66782779 -0.15639788 1.9097846 0.6212191 -0.37849957 0.68618357 0.0022581257
-0.33435401 -0.15321997 1.9081429 -0.47761902 -0.58747917 0.6537295 0.0074261795
-0.3218706 -0.15714718 1.9131669 -0.3343457 -0.68158138 0.65122199 0.0055114185
-0.30808431 -0.16120689 1.9147319 -0.32730708 -0.7481035 0.57727098 0.010430281
-0.26549211 -0.16259767 1.9123758 0.19956833 -0.94550312 0.26014408 0.033171978
-0.23747337 -0.16124196 1.9188216 0.054736849 -0.96717072 0.2590169 0.018324958
-0.21079804 -0.15710354 1.909758 0.10214233 -0.93554991 0.33891717 0.015734525
-0.20292807 -0.15610859 1.9137974 0.081613675 -0.91647404 0.39416698 0.024168031
-0.18775405 -0.15535426 1.9115907 0.12157442 -0.8451255 0.52151865 0.026010917
-0.17221436 -0.15242681 1.9103109 0.10431588 -0.78405488 0.6127739 0.013836702
-0.15738863 -0.15192516 1.9090886 0.21553151 -0.75915694 0.61512083 0.018883782
-0.1402771 -0.14725035 1.9054314 0.20658067 -0.87590015 0.43814534 0.038366623
-0.66721129 -0.14271262 1.9152063 0.61913323 -0.34895399 0.70350015 0.00082870258
-0.65570438 -0.13793218 1.9075327 0.61243272 -0.36668664 0.70033365 0.00025510104
-0.34686029 -0.13790262 1.9080431 -0.55917013 -0.42971966 0.70917928 0.0050487765
-0.33863068 -0.14284927 1.9126304 -0.56153715 -0.47885525 0.67484337 0.0023574943
-0.18443668 -0.14952368 1.919608 0.1698716 -0.84334701 0.51048106 0.016187383
-0.16906808 -0.14727156 1.9182322 0.16663784 -0.82163686 0.5474872 0.016025012
-0.15598673 -0.14408234 1.9180441 0.18019292 -0.84582692 0.502689 0.025362827
-0.14128427 -0.14497027 1.9114943 0.1312536 -0.88177806 0.45604813 0.042642891
-0.1320325 -0.14489797 1.907433 0.133819 -0.89865965 0.41817126 0.026173264
-0.10758293 -0.14111719 1.9147314 0.30032977 -0.85678977 0.42181531 0.020353381
-0.098499253 -0.13794473 1.9123355 0.34256032 -0.82412189 0.4586314 0.014042455
-0.086964034 -0.13640442 1.9061811 0.31336507 -0.81773025 0.48399809 0.0042792098
0.052195806 -0.13721444 1.9059891 -0.33351305 -0.76781601 0.55606651 0.022576928
0.066909574 -0.13611484 1.9136689 -0.10687465 -0.84471607 0.52445388 0.016048066
0.082526602 -0.13622208 1.9099112 0.21707593 -0.90004712 0.37789607 0.0091416277
0.090966329 -0.1346001 1.9044572 0.24376245 -0.90521723 0.34891257 0.0065282318
0.23471645 -0.13489392 1.9017527 0.021585066 -0.31377396 0.95074463 0.044169508
0.32914865 -0.1359168 1.9048841 -0.3021211 -0.58224016 0.75709379 0.0026745657
0.33356571 -0.13674636 1.9077419 0.67397857 0.49698651 -0.54876947 0.038388092
-0.66117793 -0.12698202 1.9180321 0.60323393 -0.41920665 0.67899996 0.0021741586
-0.65294915 -0.1265758 1.9112848 0.62101251 -0.40445995 0.6715008 0.002606703
-0.64230055 -0.12094271 1.9046099 0.68159807 -0.33817619 0.64966804 0.0045762532
-0.35144749 -0.12587889 1.9104065 -0.57714462 -0.37072966 0.72785783 0.0027220994
-0.34215936 -0.12958115 1.9177847 -0.61664963 -0.38252473 0.68812162 0.0014462481
-0.094998032 -0.13218471 1.9181755 0.36645433 -0.75273883 0.547207 0.0039304555
-0.081491746 -0.12949333 1.9131114 0.3189832 -0.78603065 0.52953333 0.00170494
-0.068170227 -0.12514782 1.912009 0.28339136 -0.77617729 0.56324738 0.0008137757
-0.053867508 -0.12205572 1.9083307 0.24334757 -0.77474016 0.58380413 0.0048564435
-0.042598151 -0.12073725 1.9046768 0.30340147 -0.72476095 0.62028426 0.011510743
0.041461673 -0.12440889 1.9108764 -0.53281152 -0.58883351 0.60836089 0.0046287947
0.05037551 -0.12932764 1.9141723 -0.44241187 -0.68336761 0.58116049 0.014498382
0.099604875 -0.12900545 1.9131846 0.32410246 -0.82677978 0.46018535 0.017465988
0.1111308 -0.12720717 1.9103024 0.44022828 -0.75701785 0.48549247 0.029030092
0.11992291 -0.12455369 1.9041007 0.53884381 -0.71320564 0.44956529 0.027300889
0.22163388 -0.12814718 1.9012867 -0.22498597 -0.45646074 0.8643868 0.04753492
0.23034647 -0.12649682 1.9035288 0.012891202 -0.38433579 0.92648292 0.061098009
0.24341892 -0.127703 1.9020227 0.17314906 -0.28650895 0.94312257 0.040385108
0.31280693 -0.12277848 1.905877 -0.38260084 -0.51209474 0.76904333 0.0019708292
0.32436115 -0.12618974 1.909829 -0.36834639 -0.53887033 0.7578215 0.0031259605
0.33192527 -0.12738384 1.9137331 0.67782575 0.46462774 -0.57441723 0.045753825
-0.64995575 -0.11695927 1.9152517 0.64738333 -0.42696747 0.63207322 0.005835542
-0.6426093 -0.1162783 1.9069376 0.68635637 -0.34894431 0.63882148 0.0051006945
-0.37901279 -0.1060382 1.9044031 -0.4106425 -0.34896728 0.84240693 0.0020057897
-0.36568314 -0.11042491 1.9080726 -0.44239023 -0.35549963 0.82336813 0.0039822208
-0.35291705 -0.11253779 1.9156394 -0.58718854 -0.35036078 0.73103642 0.0041190572
-0.051355723 -0.11584237 1.9166188 0.26888615 -0.82609743 0.49602431 0.008415943
-0.03711617 -0.11497448 1.9110297 0.379722 -0.75371397 0.53663206 0.016978487
-0.024832468 -0.10926372 1.9068004 0.49241298 -0.6493187 0.58776116 0.017965298
0.02562736 -0.1078167 1.9093138 -0.51967728 -0.63413048 0.57272297 0.0048651043
0.034868706 -0.11385064 1.9133168 -0.55567718 -0.5880155 0.58837575 0.0038822778
0.11659817 -0.11688516 1.9174421 0.56593609 -0.5713529 0.5959658 0.032384414
0.12489727 -0.11006436 1.9105214 0.64416087 -0.5183112 0.56261045 0.012416652
0.20108868 -0.11160276 1.9089472 -0.42981985 -0.55441016 0.71482092 0.029056791
0.2158595 -0.11393933 1.9108523 -0.14557832 -0.65226054 0.74395823 0.051819116
0.23205848 -0.10872085 1.9146851 0.17693678 -0.67364144 0.72327936 0.043948196
0.24499954 -0.10799854 1.9097039 0.32925898 -0.58460301 0.74389297 0.038131356
0.26226777 -0.1060225 1.9059395 0.19874111 -0.52254122 0.82967132 0.021746779
0.27707908 -0.10637627 1.9051607 -0.025944779 -0.50502348 0.86363101 0.0056402422
0.29570347 -0.10792716 1.907061 -0.26578778 -0.49048015 0.83011532 0.0068752333
0.30736932 -0.11167257 1.9096164 -0.35182756 -0.50661224 0.7872234 0.002870817
0.31976843 -0.11289737 1.9145309 -0.46020618 -0.5136947 0.72457361 0.011356018
0.33043769 -0.11770058 1.9179592 -0.53625458 -0.55137491 0.64043611 0.017222187
-0.63416445 -0.097363368 1.9089458 0.68490654 -0.48713535 0.54271233 0.0098472741
-0.62529033 -0.090337507 1.9065909 0.67017281 -0.48623469 0.5823971 0.017246313
-0.38149616 -0.095413454 1.9076799 -0.41130814 -0.36832416 0.83380938 0.0025091108
-0.36697602 -0.097300872 1.9128871 -0.449606 -0.35496563 0.81978315 0.0033363642
-0.35701424 -0.099529147 1.918444 -0.56053698 -0.34319031 0.75453711 0.0038170512
-0.01976032 -0.100281 1.9109312 0.43946233 -0.78944862 0.46698812 0.021535788
-0.012512915 -0.097157069 1.9063327 0.32864913 -0.77357596 0.58597511 0.04009575
0.0077202809 -0.095751055 1.9102762 -0.19471639 -0.86105072 0.47210261 0.025754718
0.019970693 -0.099019736 1.914543 -0.40929422 -0.74109071 0.53469473 0.0051235389
0.12972598 -0.09997429 1.9147471 0.54761654 -0.5905602 0.59514147 0.013698411
0.13956811 -0.094906919 1.9113884 0.48998362 -0.67646205 0.54983371 0.0024623813
0.15079339 -0.091386564 1.9059284 0.34296325 -0.6929704 0.63534647 0.01357429
0.18728121 -0.092568099 1.9079064 -0.46756098 -0.55468535 0.69855464 0.010930303
0.19823207 -0.098602585 1.9167085 -0.56524962 -0.47135159 0.68335837 0.015949344
0.25170785 -0.09810783 1.9160056 0.34619367 -0.57811975 0.74077082 0.014729816
0.26065239 -0.096666388 1.9118028 0.26772633 -0.53572357 0.80127454 0.012125598
0.27541879 -0.09627746 1.910118 0.015800303 -0.50576127 0.86256349 0.0075624757
0.29145962 -0.095582962 1.9121424 -0.23729482 -0.503923 0.8309164 0.0077035497
0.304739 -0.10019846 1.9158957 -0.39089298 -0.48722175 0.78092808 0.0032735446
-0.63086605 -0.087991185 1.9163208 0.72709244 -0.45944151 0.51234162 0.014413117
-0.62595254 -0.086386964 1.9133872 0.61219996 -0.60383177 0.58238161 0.019576099
-0.39404979 -0.078758284 1.9090799 -0.44998372 -0.4893651 0.74713898 0.0050321906
-0.38199356 -0.082355358 1.913564 -0.37563136 -0.4578757 0.80578071 0.0045907148
-0.36803919 -0.085251778 1.917821 -0.43979952 -0.40388754 0.80226231 0.0033641132
0.14647034 -0.086662024 1.9157701 0.39478242 -0.75007874 0.53136337 0.0044770646
0.15618081 -0.084681183 1.9098532 0.31425244 -0.69815522 0.67284489 0.01620123
0.17085184 -0.083913222 1.9078211 -0.090739347 -0.67990148 0.73883784 0.015503616
0.18491565 -0.08520738 1.9126189 -0.36519021 -0.63694966 0.6789735 0.015024444
0.26281187 -0.08607018 1.9178944 0.26376408 -0.58577818 0.76717925 0.010986095
0.27610365 -0.085164644 1.915835 0.0083649391 -0.58642834 0.81238216 0.010719849
0.28944817 -0.085459299 1.9172401 -0.20323911 -0.56798398 0.7978397 0.011568383
-0.61769092 -0.064269423 1.9088682 0.83832246 0.11649664 0.53994215 0.043995123
-0.42676312 -0.060225885 1.9106879 -0.47746629 -0.77300566 0.42031848 0.050902396
-0.41144705 -0.063829415 1.909866 -0.3127515 -0.7246151 0.61421591 0.011262931
-0.39794868 -0.068844177 1.9142556 -0.41590339 -0.61148196 0.67354411 0.0041270675
-0.38681296 -0.071982928 1.9178517 -0.35854435 -0.57198924 0.73778242 0.0062468289
-0.62148213 -0.055071313 1.9113603 0.76794165 0.45794085 0.49818489 0.047533225
-0.43840083 -0.049094509 1.9183677 -0.66266096 -0.70895863 0.28423223 0.06643495
-0.43145168 -0.054311551 1.917375 -0.46270567 -0.8035903 0.38743803 0.0368913
-0.41674367 -0.058749583 1.916048 -0.27366516 -0.81145084 0.51665789 0.0083182836
-0.6376785 -0.041246057 1.9093003 -0.52093869 -0.79870355 -0.31221041 0.0091288565
-0.1660122 -0.018265195 1.9049656 0.23757632 -0.97093272 -0.02910524 0.0049335877
-0.67139 -0.0047501856 1.9115 1.1528543 0.33112839 -0.2897439 0.0013386105
-0.67781758 0.0077530127 1.9090658 0.80704856 0.48160842 0.34298512 0.0013236082
-0.45973641 0.007712902 1.9103447 0.9637875 0.25255471 0.088980198 0.0025630018
-0.6929754 0.024697252 1.9147395 0.67808324 0.62671 0.38517448 0.0028649997
-0.71504045 0.043289911 1.9185785 0.7874735 0.45226777 0.42172715 0.014784174
-0.46548706 0.042506557 1.9129988 0.98423022 0.22148761 -0.019721579 3.2171974e-05
-0.46445251 0.037461191 1.9090044 0.98727059 0.12452836 0.09899395 0.00013619941
-0.71196246 0.052294087 1.9070013 0.84016657 0.27354926 0.47001895 0.0068785092
-0.721008 0.072364859 1.9168303 0.84758544 0.36896503 0.38490552 0.024330696
-0.71841604 0.062875547 1.9158242 0.86522722 0.2087374 0.4564392 0.0080745695
-0.72990954 0.087353237 1.914992 -0.68768215 -0.68445063 -0.24748781 0.025836613
-0.72135061 0.076665513 1.9144114 0.80949873 0.44386843 0.38732332 0.023343071
-0.75242543 0.10199088 1.909 -0.55915231 -0.77712363 -0.30124521 0.00099882309
-0.73941964 0.092943735 1.9152023 -0.53943253 -0.80530167 -0.249487 0.00541538
-1.0359308 0.43482402 1.9100001 0.29734352 -1.0210838 0.18362927 0.013620421
-1.0292668 0.43763804 1.9143438 0.39381185 -0.97303492 0.0233339 0.033039961
-0.7309584 0.59916961 1.9225246 -0.18530644 0.958134 0.56578273 0.081120327
-0.51404464 0.59701538 1.9159125 -0.13898148 -0.93317395 -0.40713286 0.020892287
-0.50175732 0.59720457 1.9147779 0.02437412 -0.87204242 -0.4889771 0.033829514
-0.48972797 0.59916288 1.9144678 0.14630458 -0.84386903 -0.51764715 0.026786374
-0.45279106 0.60243124 1.9134812 -0.0059189633 -0.8078087 -0.59675014 0.062784523
-0.4438374 0.60144991 1.9138367 0.22480726 -0.82584566 -0.55788994 0.070553035
-0.85616887 0.61170232 1.919813 -0.0029452706 0.30371305 0.95813352 0.035064336
-0.85118085 0.61172378 1.9197356 0.0027164582 0.2937142 0.95686215 0.034591623
-0.82126421 0.61194444 1.9201071 0.0053629284 0.49113131 0.88454193 0.041251797
-0.80628788 0.61196101 1.9197085 0.023433527 0.60487157 0.8036927 0.035012018
-0.79141611 0.61217445 1.9199576 -0.08249487 0.59897059 0.79847151 0.025539305
-0.73982835 0.6089257 1.9170514 0.13705796 0.3966704 0.91611409 0.076648563
-0.72758281 0.6079427 1.9186958 -0.13893218 0.35544875 0.94063932 0.028632123
-0.64139557 0.61259067 1.9208868 0.086116791 0.45481214 0.88721269 0.038059205
-0.61898059 0.61146504 1.9186726 0.018285552 0.47876787 0.87934011 0.041354079
-0.60639101 0.61184663 1.9190212 -0.07912004 0.52154219 0.85046303 0.042076603
-0.54491341 0.6104368 1.9157153 0.3279832 0.68520004 0.65756536 0.017496442
-0.53279501 0.60751992 1.9119786 0.33252278 0.66006911 0.68369305 0.016746642
-0.52001435 0.60463583 1.9077433 -0.22190118 -0.65762943 -0.72334415 0.025312187
-0.50369346 0.60235095 1.9066492 -0.037150458 -0.69883275 -0.71873605 0.028355664
-0.48624933 0.60313934 1.9086654 0.16579388 -0.74386531 -0.64999408 0.026337968
-0.47214592 0.60601598 1.9111896 0.15647742 -0.73742831 -0.66065758 0.063776806
-0.45867944 0.60680544 1.9098214 0.027537204 -0.68516171 -0.74176687 0.074702717
-0.44216543 0.60709429 1.9095143 -0.40650329 0.58425725 0.70256943 0.082694776
-0.43531793 0.61379862 1.9098495 -0.53775203 0.53518033 0.66489977 0.056348041
-0.87358242 0.61906052 1.9193701 0.095691003 0.039497286 0.99893284 0.02193974
-0.86116761 0.61896759 1.9186826 6.1442559e-05 0.0070752157 1.0113524 0.043756105
-0.84619236 0.61901563 1.9189878 0.013159339 0.022348346 1.0101521 0.038386833
-0.83045501 0.62003165 1.9187615 0.086982802 0.10923756 0.99032682 0.025052216
-0.81700784 0.62008584 1.9166937 0.11293833 0.23956633 0.96453655 0.032741327
-0.80314702 0.62238145 1.9139435 0.034231134 0.28081238 0.95923585 0.031852834
-0.78760034 0.6224044 1.9146739 -0.16514012 0.29588947 0.94120407 0.02886769
-0.77480334 0.62414211 1.9179848 -0.18908961 0.15731716 0.97568572 0.035782944
-0.75132245 0.61655873 1.9194053 0.13052289 0.13223507 0.98357838 0.028182117
-0.74178869 0.62113029 1.9177071 0.093781017 -0.085203074 1.0006926 0.027102698
-0.72716087 0.62013185 1.9164606 -0.062131803 -0.0070526917 0.9989543 0.025113149
-0.71413696 0.62219483 1.9180351 -0.15093601 0.076947048 1.0195682 0.063854553
-0.69153529 0.62389201 1.9216152 -0.022807615 0.45680028 0.9360795 0.08393231
-0.68101484 0.62417406 1.9221325 0.072646312 0.60501194 0.79332113 0.072584048
-0.66606045 0.62425548 1.9190533 0.14055711 0.47132242 0.87245136 0.058883157
-0.65152061 0.62143302 1.9187775 0.10764945 0.36641496 0.92637533 0.077326022
-0.63635367 0.62186736 1.9181238 0.067143552 0.15882422 0.98748994 0.015757103
-0.62072188 0.62063599 1.9163221 0.077175438 0.18407731 0.98132223 0.017344085
-0.6048516 0.62202936 1.915014 0.0043311194 0.26600525 0.96487707 0.030421963
-0.59113228 0.62361825 1.9157255 -0.0049368055 0.35244381 0.93839818 0.025891548
-0.57627141 0.62462974 1.9152267 0.10083254 0.42835906 0.89909917 0.026760764
-0.56207377 0.62209678 1.9138731 0.22567628 0.48734492 0.84456527 0.012906655
-0.5484072 0.62256843 1.9087782 0.27710834 0.42284954 0.86311662 0.017674506
-0.53647304 0.61894059 1.9059732 0.2768147 0.38382131 0.8819077 0.021336176
-0.45881382 0.61674917 1.9041754 -0.007802079 0.34801158 0.93944651 0.041514229
-0.42769828 0.62354451 1.9119793 0.69848877 -0.31923383 -0.64061451 0.049888484
-0.81762749 0.63501668 1.9176884 0.26153079 -0.084125049 0.96177304 0.010794417
-0.80314302 0.63813239 1.9135846 0.12226115 -0.024538819 0.9944461 0.010314465
-0.78767008 0.63878584 1.9137331 -0.19077417 -0.083110869 0.97846383 0.01292056
-0.77575976 0.63402617 1.9176009 -0.26259339 -0.069902092 0.96775478 0.02898426
-0.69147009 0.63402385 1.919197 0.10640422 0.19865021 0.97459906 0.078991599
-0.68055815 0.63648111 1.9169348 0.1693892 0.219537 0.96199232 0.062696658
-0.66577709 0.63549119 1.9157083 0.044806141 0.18723473 0.98187917 0.036407948
-0.65100396 0.63592827 1.9173192 -0.069559656 0.063367821 0.99637848 0.008574673
-0.63720638 0.63495606 1.9183367 -0.022433821 -0.03264527 1.0006734 0.012148472
-0.62119663 0.63604009 1.9176999 0.11698488 -0.090195328 0.99057937 0.0074051125
-0.6062727 0.63673925 1.9151068 0.091352202 -0.061865911 0.99396431 0.0087308949
-0.59093517 0.63814855 1.9142628 0.086240157 0.023769239 0.99834061 0.019549804
-0.57896984 0.63975334 1.9119803 0.19475143 0.05649583 0.97927368 0.017261818
-0.56343621 0.63783675 1.9082137 0.25045848 0.13225491 0.96053803 0.0074196039
-0.55154055 0.63562912 1.9051898 0.21783422 0.14781962 0.96507829 0.013255901
-0.50340557 0.64214718 1.9058098 -0.070301443 -0.32523426 0.94315457 0.0031381589
-0.48878959 0.64253873 1.9066968 -0.0416416 -0.35812929 0.93282086 0.0048411395
-0.47384226 0.64235193 1.90652 -0.0013739291 -0.29528394 0.95620227 0.0080090482
-0.45865369 0.64188403 1.9052445 0.037752338 -0.29067522 0.9568966 0.012884773
-0.44122255 0.64175487 1.9049686 -0.19487706 -0.26324591 0.9523077 0.01514307
-0.42746064 0.63719434 1.9099154 -0.56916505 -0.056419693 0.82335758 0.025840361
-0.41779828 0.63414401 1.9195985 0.768821 -0.13491756 -0.62588352 0.029953802
-0.81239331 0.65106791 1.9184384 0.26725549 -0.14628927 0.95409095 0.010487081
-0.80401433 0.65034527 1.9150043 0.12596072 -0.13832639 0.98324418 0.011978078
-0.7875073 0.65111041 1.9165783 -0.2437543 -0.22480495 0.94354856 0.012262098
-0.67917377 0.6499244 1.9168143 0.23251604 0.047310337 0.97165316 0.013442792
-0.66650331 0.65145141 1.9140842 0.035968468 0.043000869 0.99909383 0.013522028
-0.65305376 0.65226471 1.9152496 -0.19650783 -0.014859566 0.98142231 0.013375358
-0.60553467 0.65030164 1.9172974 0.13719486 -0.28386924 0.94937497 0.011532312
-0.59160662 0.65202755 1.9157155 0.16521126 -0.2884272 0.94394171 0.022569323
-0.57732522 0.65181929 1.9127563 0.25840902 -0.15997253 0.95361692 0.021500006
-0.5636524 0.65291345 1.9090226 0.28983101 -0.11803722 0.9502548 0.004067108
-0.55097175 0.65327996 1.9053507 0.17463928 -0.074370325 0.98214549 0.0075984066
-0.52808982 0.65426797 1.9057875 -0.1504824 -0.20141619 0.97280645 0.0093508074
-0.51785326 0.65350336 1.9078776 -0.17679881 -0.291311 0.94102973 0.0071778009
-0.50337464 0.65242058 1.9104384 -0.10186622 -0.38413998 0.91775209 0.0066612754
-0.48745519 0.65168893 1.9108514 -0.022661611 -0.40576631 0.91371006 0.0062085679
-0.47254136 0.6517036 1.9105569 0.024814714 -0.41551292 0.90929282 0.0050690514
-0.45737952 0.65357828 1.9102108 0.019591786 -0.42808244 0.90371299 0.0028337259
-0.44325167 0.65295202 1.9101005 -0.1504541 -0.40648159 0.90204209 0.006397754
-0.42730737 0.6506685 1.9142634 -0.48273703 -0.28878236 0.82709205 0.0097156465
-0.81130499 0.66645569 1.9186975 0.1844561 -0.03416292 0.98512626 0.02591949
-0.80051923 0.66582948 1.9170147 -0.066913113 -0.1239566 0.99062771 0.028087776
-0.79112995 0.6634599 1.9186244 -0.31017485 -0.21900952 0.92703003 0.035008561
-0.67871809 0.66459012 1.9164276 0.31549263 0.049327403 0.94882077 0.016420618
-0.66867483 0.66982585 1.9128366 0.077540897 0.071809232 0.99573147 0.026042851
-0.65373516 0.66734117 1.9161671 -0.28191638 -0.016496183 0.95932728 0.02212589
-0.59132767 0.6608659 1.9202034 0.2417248 -0.41205215 0.87875444 0.024272954
-0.57492352 0.66449451 1.9160931 0.37482968 -0.27302125 0.88670558 0.017577825
