# .PCD v0.7 - Point Cloud Data file format
VERSION 0.7
FIELDS x y z normal_x normal_y normal_z curvature
SIZE 4 4 4 4 4 4 4
TYPE F F F F F F F
COUNT 1 1 1 1 1 1 1
WIDTH 599
HEIGHT 1
VIEWPOINT 0 0 0 1 0 0 0
POINTS 599
DATA ascii
-0.14655544 0.030422041 1.6790726 0.88284469 -0.29815456 -0.36392114 0.00070090179
-0.15077393 0.026518079 1.6723725 0.85810047 -0.33770335 -0.38874492 0.00083312648
-0.43169194 0.050652616 1.6865228 -0.7203263 -0.58640403 -0.3764334 0.015094268
-0.44058123 0.04879133 1.6940479 -0.45455974 -0.85524851 -0.37045702 0.024228547
-0.47676522 0.05623696 1.6920025 0.51346779 -0.56785703 -0.6451754 0.010754118
-0.48431894 0.051352784 1.6881647 0.65336299 -0.4518885 -0.60877675 0.0018517965
-0.15666217 0.03161918 1.657668 1.4308958 -0.013565005 0.43538409 0.0014132676
-0.42315221 0.04342882 1.6709498 0.85930431 0.33152685 0.39233726 0.017750446
-0.49094862 0.046962224 1.6835239 0.7681582 -0.31809965 -0.55760771 0.0079762544
-0.41728759 0.040131919 1.6593795 0.8524695 0.17785811 0.49365157 0.015258023
-0.4225685 0.049145754 1.6642777 0.91019756 0.2242799 0.3501336 0.009231545
-0.085107081 0.016762407 1.630245 0.97305131 0.16667983 0.15933903 0.0051706843
-0.41182414 0.035891853 1.6454144 0.86984861 -0.067137048 0.48916602 0.015506177
-0.49626866 0.036273148 1.6454084 0.97796512 0.60896564 0.40193829 0.004138798
-0.080402479 0.0071148602 1.6121883 0.98221827 0.15500075 0.10593124 0.0037343188
-0.41210777 0.033825185 1.6303486 0.89234197 -0.26443762 0.37012383 0.0062079243
-0.49244654 0.038656708 1.6383468 0.90298349 0.40684164 -0.16789602 0.0040053139
-0.079658858 0.0055522751 1.6030872 0.64294559 -0.34357062 0.68452919 0
-0.41285259 0.029149411 1.616576 0.85874587 -0.34485078 0.37938404 0.014337477
-0.48136187 0.033867877 1.6134446 0.70492136 0.64689147 -0.29202467 0.012028182
-0.48527697 0.033075064 1.6179523 0.76759106 0.5844447 -0.26531219 0.012087479
-0.40843564 0.016935501 1.6000988 0.74993831 -0.29092517 0.60044986 0.039122187
-0.41616222 0.025529344 1.6013645 0.70174605 -0.50864053 0.519063 0.051978134
-0.46643218 0.03048671 1.5991343 -0.45333773 -0.81775635 0.35741594 0.013825654
-0.47786722 0.028578954 1.6069331 -0.61091387 -0.71961236 0.33177698 0.0051058154
-0.48643398 0.026142232 1.6141815 0.76630825 0.56528634 -0.30737776 0.010021178
-0.40898398 0.01675277 1.5893571 0.6226297 -0.37482488 0.69037402 0.06673383
-0.42005256 0.023482803 1.5885227 0.36483467 -0.63430792 0.68537748 0.077280626
-0.43491378 0.025164854 1.5883422 0.068132833 -0.88764858 0.46265197 0.044443607
-0.4493196 0.022730263 1.5888309 -0.10365815 -0.90062892 0.44930845 0.043201193
-0.46405104 0.02123479 1.5918304 -0.32573044 -0.78014821 0.55509704 0.070576318
-0.47421825 0.022418564 1.5986615 -0.53245461 -0.71238548 0.46666127 0.030938769
-0.40738291 0.016186224 1.5749041 0.48204476 -0.40511832 0.77939713 0.042196564
-0.4204126 0.0194478 1.5755796 0.047094069 -0.5220921 0.85280818 0.05069603
-0.4332276 0.013390855 1.5783141 -0.12877165 -0.6352483 0.76865566 0.037502393
-0.45105267 0.01529344 1.5833052 -0.052751638 -0.74425542 0.66789013 0.047124114
-0.4645575 0.012652605 1.5793173 -0.047231264 -0.39693478 0.91951817 0.11609213
-0.47960767 0.013382157 1.575263 -0.06260778 0.09822768 1.0021491 0.077017121
-0.53210974 0.01816321 1.5778888 -0.096082829 -0.89269906 -0.46603236 0.0013464412
-0.53935522 0.024781058 1.5771689 0.02654589 -0.9533143 -0.30081019 1.9386778e-05
-0.55217481 0.026602577 1.5765563 0.03570836 -0.96198732 -0.27074876 0
-0.40863186 0.0118663 1.5603138 0.4525972 -0.36807936 0.81416672 0.054824211
-0.42142475 0.013028684 1.5610341 0.066251025 -0.35239869 0.93443972 0.05874826
-0.43499452 0.0083291894 1.5614496 -0.060024898 -0.26740584 0.98814046 0.04546446
-0.45336312 0.011581127 1.5613102 0.30321157 0.039475471 0.95667714 0.057467189
-0.46650919 0.01607798 1.5647207 0.24559815 0.13271105 0.96176994 0.069596656
-0.48110735 0.01815878 1.567139 -0.12928386 -0.36344805 -0.92632753 0.05804326
-0.49451643 0.019185213 1.5705616 -0.091389894 -0.60182112 -0.79532284 0.05666773
-0.50415874 0.020294283 1.5714192 -0.19207174 -0.74616891 -0.64059651 0.023398267
-0.40752658 0.0083318483 1.5453178 0.522376 -0.21438585 0.82637358 0.020596141
-0.42357114 0.012738522 1.5463569 0.21581531 -0.088949502 0.97345734 0.02045976
-0.43853229 0.012377206 1.5484874 0.20947905 0.064166658 0.97834116 0.022332011
-0.45042905 0.015747385 1.5523887 0.38113055 0.23248327 0.89599162 0.017224517
-0.39699006 0.00076169678 1.5295684 0.68305218 -0.39271644 0.6271978 0.037145965
-0.40803957 0.0090864459 1.5311311 0.38352534 -0.47505325 0.80583024 0.049396619
-0.41965762 0.012636747 1.5360922 0.28061733 -0.33121666 0.90275145 0.039676379
-0.39899546 -0.0037552048 1.5206592 0.61927313 -0.91394687 0.38415119 0.044694211
-0.41119131 0.0035116065 1.5175228 0.32678074 -0.82083905 0.47335139 0.060908522
-0.42594346 0.0019315063 1.5166261 0.27776057 -0.90459001 0.32369596 0.043044019
-0.43721458 0.0027874711 1.5134755 0.39640728 -0.89484358 0.21453343 0.040076412
-0.44505864 -0.0045169778 1.5081851 0.43734011 -0.87806141 0.1997121 0.030180493
-0.45651478 -0.0016912004 1.5024217 0.68683261 -0.7485981 0.082095064 0.040898286
-0.46243355 -0.0071873507 1.4929038 0.95718724 -0.56352365 0.18837109 0.086494587
0.34164253 0.15114613 2.1801586 0.96916896 -0.26675043 0.1657424 0.0036169891
-0.22529289 0.18253238 2.2083945 -0.34188443 -0.90860367 0.26846775 0.049641527
-0.23698945 0.18056703 2.212379 -0.30121061 -0.95307004 0.062247742 0.026955966
-0.25026089 0.17875056 2.2150967 -0.19432636 -0.97945261 -0.056326043 0.015040139
-0.26605874 0.18081377 2.214875 0.025912756 -0.99761629 -0.087999381 0.010423573
-0.27771232 0.18420325 2.2139215 0.14505766 -1.0001404 -0.02984887 0.0087485071
-0.2917673 0.18687749 2.2120228 0.2592943 -0.95359701 -0.16004436 0.02106593
-0.43542024 0.19549185 2.2229514 -0.31978795 -0.93645829 0.16213991 0.014113734
-0.44612902 0.19346949 2.2258606 -0.20863999 -0.97765189 0.078263305 0.017486393
-0.45975617 0.19094917 2.2263017 -0.090383708 -1.0027733 -0.099965446 0.0366036
-0.47185665 0.19537964 2.2255859 0.11318526 -0.91580296 -0.40094754 0.021584481
-0.2129873 0.17981607 2.1959372 -0.44219166 -0.57967472 0.68535048 0.035547175
-0.22203569 0.17716369 2.2013657 -0.43475407 -0.75262809 0.49776146 0.032327432
-0.23279147 0.17116179 2.2040129 -0.50742012 -0.79259878 0.35057434 0.022511017
-0.2680051 0.17166092 2.2146533 -0.0059450334 -0.99614555 -0.08755105 0.019423272
-0.28127199 0.17540614 2.212297 0.21021576 -0.97232366 -0.10504235 0.016639711
-0.29665706 0.17813523 2.207835 0.40878868 -0.91382372 -0.063528761 0.026912021
-0.30830342 0.18319841 2.2027512 0.54415065 -0.83700687 0.067853577 0.024493828
-0.39195648 0.18950099 2.2031667 -0.34789768 -0.93415827 0.07947059 0.0024512173
-0.40305111 0.18839832 2.2061987 -0.32596555 -0.94286561 0.070753321 0.0018755024
-0.4176552 0.18599696 2.2098646 -0.33135664 -0.93601066 0.12237654 0.003457146
-0.43051922 0.18559691 2.21508 -0.35890773 -0.91335732 0.19273765 0.0026852395
-0.44390821 0.18500461 2.2211654 -0.2780318 -0.94467551 0.1796331 0.012304573
-0.47518262 0.1914255 2.2261598 0.030257912 -0.91918045 -0.40267169 0.035312839
-0.48697171 0.19680035 2.2221804 0.13142195 -0.76049638 -0.66444308 0.011480405
0.33415076 0.14078349 2.1490541 0.62916458 -0.67721832 0.38554347 0.007020507
0.048287824 0.15634374 2.1601207 -0.13243903 -0.98629528 0.15989229 0.090823442
-0.12074932 0.16847858 2.1741335 -0.26543403 -0.78869849 0.5552941 0.009187487
-0.13210081 0.168556 2.1774487 -0.15088733 -0.85477173 0.49692303 0.0082794102
-0.14683203 0.16904317 2.1782761 -0.0090592094 -0.90466624 0.42639312 0.0044124378
-0.16098306 0.17091055 2.1772442 0.10863025 -0.92422748 0.36703843 0.026601287
-0.17202549 0.1717236 2.174515 0.181547 -0.93827295 0.29496706 0.031392291
-0.21254064 0.17446713 2.1825459 -0.53500295 -0.60105187 0.59393573 0.043346178
-0.22189727 0.16918465 2.1886668 -0.59111315 -0.56697023 0.57396591 0.013317805
-0.23045644 0.16525547 2.1945889 -0.59970361 -0.62297189 0.50238746 0.0046167732
-0.30638063 0.1699281 2.2012613 0.6460762 -0.76249206 0.043548726 0.052158799
-0.31312323 0.17381999 2.1948192 0.69254917 -0.69619876 0.19257851 0.036727868
-0.32173643 0.18069772 2.1897042 0.576038 -0.76484066 0.28894073 0.021967208
-0.37598518 0.18156527 2.1924493 -0.45518345 -0.84532404 0.27971256 0.005436793
-0.38779083 0.17917192 2.1980515 -0.41248393 -0.88242084 0.22653483 0.0072531649
-0.40070987 0.1795723 2.203361 -0.33409244 -0.92969054 0.15744254 0.0058989855
-0.41176015 0.1793198 2.2067256 -0.30985829 -0.93948716 0.14792269 0.0045921663
0.33089611 0.13537741 2.1374791 0.71948034 -0.53956789 0.43863139 0.016310528
0.057567395 0.15202144 2.1512909 -0.35997549 -0.85137677 0.39713612 0.040871967
0.046590988 0.1508683 2.1564734 -0.13778089 -0.93756372 0.33332446 0.053328916
0.031593248 0.15236372 2.1533728 0.25923744 -0.92416894 0.28317136 0.03534944
0.020905295 0.15428051 2.1495528 0.36870196 -0.89514881 0.25450101 0.013155838
-0.10827393 0.16508271 2.1597712 -0.37556797 -0.68274021 0.62741137 0.0044104448
-0.11764603 0.16314234 2.1649301 -0.33154669 -0.69393003 0.63950187 0.0040240479
-0.13353151 0.15993586 2.1680951 -0.20180148 -0.74900913 0.63119549 0.0080903023
-0.14897719 0.15944466 2.1700263 -0.088877112 -0.83594412 0.54360116 0.010276984
-0.16401444 0.15997961 2.1709285 0.012310484 -0.92437422 0.3829129 0.019867826
-0.17880821 0.16407345 2.1702785 0.11122782 -0.97413903 0.1970831 0.014489192
-0.19415224 0.16448775 2.1678274 -0.054083046 -0.98388195 0.17377195 0.028555281
-0.21057615 0.16793165 2.1704035 -0.39079651 -0.83076793 0.40198535 0.055934668
-0.22172052 0.16349258 2.1778359 -0.53844988 -0.65933418 0.52609551 0.031731691
-0.31878603 0.16767123 2.1830134 0.68171728 -0.63749355 0.36161956 0.042714506
-0.32836327 0.17394444 2.1792996 0.45972162 -0.78451264 0.4172793 0.0051610679
-0.34245265 0.17675443 2.1746192 0.11923887 -0.88457733 0.45139655 0.020329587
-0.35902864 0.17742124 2.1778378 -0.29272795 -0.85562974 0.42900294 0.011501726
-0.37197137 0.1747102 2.1842215 -0.47030306 -0.79131031 0.39091158 0.0035331636
-0.38151714 0.17229627 2.189594 -0.46031597 -0.8035146 0.37775373 0.0048945206
0.3260574 0.12949538 2.1245205 0.64999837 -0.62024295 0.43923527 0.0024575235
0.31767455 0.13311085 2.117681 0.58228821 -0.68251497 0.44282269 0.0038899048
0.26449081 0.13550001 2.1211357 -0.2287983 -0.87172455 0.44462177 0.055781309
0.25483423 0.13427632 2.12398 -0.01345977 -0.92285895 0.38614604 0.069983795
0.08434166 0.14778043 2.1311796 -0.29832628 -0.85099262 0.43259645 0.0061784699
0.071392879 0.14531758 2.1344593 -0.29560918 -0.82828647 0.47694507 0.012788806
0.059393745 0.14555147 2.1411092 -0.35145193 -0.75806111 0.55104226 0.021597298
0.045590445 0.14192119 2.1451068 -0.12592597 -0.78032207 0.61333066 0.036617167
0.029257281 0.14349097 2.1466832 0.19484885 -0.83711827 0.51626384 0.022243241
0.015064036 0.14924523 2.1426783 0.40180239 -0.84326726 0.35798949 0.011095511
0.0046615177 0.1520081 2.1372285 0.37965351 -0.8664462 0.32603163 0.010223807
-0.096307702 0.15769191 2.1437333 -0.3183673 -0.87514663 0.36536804 0.017600851
-0.1062101 0.15869178 2.1488395 -0.32897413 -0.79402536 0.51488334 0.018197365
-0.11932865 0.15563291 2.1518235 -0.26661548 -0.74093306 0.61685598 0.012720032
-0.13446113 0.15271196 2.1557593 -0.20950913 -0.64655018 0.73375732 0.014687444
-0.14686698 0.15239722 2.1605461 -0.18754829 -0.71247774 0.67665058 0.018096488
-0.19991985 0.15755716 2.1653006 -0.027462725 -0.98417282 0.19230933 0.033918865
-0.2113609 0.15885244 2.1657107 -0.23617963 -0.91334856 0.34459406 0.050471932
-0.22266266 0.15644953 2.1676452 -0.43573663 -0.73695737 0.52576351 0.037960146
-0.33222634 0.16501839 2.1684725 0.32830718 -0.81406474 0.48262849 0.012914726
-0.34537482 0.16815086 2.1666834 0.042894829 -0.87917846 0.47696155 0.010653518
-0.35946801 0.16816804 2.1690776 -0.28725871 -0.83783674 0.46555531 0.012456874
-0.36886755 0.16731134 2.1741107 -0.41578132 -0.78241765 0.46431115 0.005064039
-0.48248902 0.17423169 2.169802 0.9150129 0.40125698 -0.041759696 0.0013067988
0.32392877 0.12169161 2.1146817 0.62811106 -0.67937917 0.38022256 0.0024219367
0.3129155 0.12679617 2.1085122 0.52086616 -0.75445092 0.40149263 0.005740501
0.27652085 0.13168614 2.10743 -0.25179243 -0.76228952 0.61163527 0.04700999
0.2662642 0.12870325 2.11238 -0.24685051 -0.69269127 0.67820781 0.060445435
0.25095376 0.12780802 2.1143668 0.13276914 -0.72068292 0.68363214 0.05843161
0.2393811 0.13495071 2.1130381 0.28357083 -0.77471393 0.56663024 0.017452661
0.12490325 0.13982926 2.1127415 -0.34745985 -0.71431631 0.61014634 0.039074831
0.11468344 0.1391613 2.115803 -0.30930364 -0.79846644 0.51693046 0.032688789
0.10048728 0.14020005 2.1208427 -0.29757646 -0.85651112 0.4218449 0.017808398
0.086513102 0.13919258 2.1244752 -0.25378498 -0.86491555 0.43344635 0.0066807871
0.071388714 0.13701096 2.1274431 -0.21344815 -0.80903214 0.54783696 0.015872696
0.056227088 0.13505706 2.1294179 -0.16264611 -0.68277037 0.7171365 0.017044535
0.04522321 0.13435727 2.1313167 -0.08171653 -0.61639762 0.78831673 0.011528726
0.023772229 0.13867962 2.1373999 0.22887513 -0.73266512 0.64108253 0.022859115
0.012739478 0.13952911 2.1320248 0.2653639 -0.77024406 0.58876085 0.019247269
-0.00163554 0.1454377 2.1295569 0.28321776 -0.87610418 0.39022514 0.0071265302
-0.015875887 0.14789814 2.1262405 0.19887711 -0.9227007 0.33081383 0.002326912
-0.028654784 0.15135922 2.1255071 0.073257461 -0.95425338 0.29103073 0.0054102931
-0.049831405 0.15008719 2.1264069 -0.20416205 -0.94962215 0.23875417 0.0056965342
-0.063728459 0.1487204 2.1304171 -0.31947535 -0.93094641 0.17720918 0.0022355525
-0.078114718 0.14976341 2.1354373 -0.29004288 -0.94542819 0.14849167 0.0016786663
-0.091143057 0.15005907 2.138907 -0.25333327 -0.9440394 0.21145616 0.005449615
-0.10460517 0.14797688 2.1405187 -0.19299209 -0.92434645 0.33144534 0.014131671
-0.12051114 0.1480664 2.1437526 -0.10371773 -0.80371112 0.5876869 0.032186761
-0.13568336 0.1474115 2.1412497 -0.033655424 -0.70680183 0.70727688 0.038774196
-0.14559653 0.14524604 2.1370189 -0.2000754 -0.65691024 0.72850823 0.046555351
-0.34722608 0.16122545 2.1604028 -0.020850224 -0.88068509 0.47427973 0.0089966375
-0.35692421 0.16090338 2.1617489 -0.21701971 -0.8622824 0.45940727 0.01739708
-0.47529423 0.17579055 2.1550143 0.87555963 0.4109292 -0.25403225 0
0.30810523 0.11982242 2.0992434 0.46825936 -0.72922379 0.50046873 0.021856865
0.29524294 0.12398865 2.0973675 0.28147346 -0.72430235 0.63442516 0.039929237
0.27999267 0.12636293 2.0975006 -0.056543395 -0.63543987 0.7910952 0.055195268
0.2648454 0.12480031 2.0978186 -0.12685238 -0.37456363 0.91955483 0.025863623
0.24972287 0.12528796 2.0991566 0.029548513 -0.42486668 0.90482682 0.021748714
0.23530683 0.12766311 2.099931 0.10283343 -0.61776745 0.78129339 0.036267467
0.22180723 0.12989073 2.0994537 0.02049483 -0.76471651 0.64444125 0.034908548
0.20670743 0.130281 2.0994151 -0.0065792669 -0.86739522 0.49970964 0.0099048745
0.19167976 0.13069712 2.0991383 0.11593317 -0.84545106 0.52270055 0.012457263
0.17622674 0.13445129 2.1002369 0.22269695 -0.77361637 0.59395623 0.019577853
0.16684231 0.13705038 2.0975595 0.30231985 -0.70077789 0.64640141 0.011717539
0.12775342 0.14082344 2.1108422 -0.37630248 -0.6862154 0.62911201 0.026008867
0.11531752 0.13408357 2.1084116 -0.37144402 -0.69510537 0.61555684 0.031568523
0.1014621 0.13104454 2.111129 -0.33523285 -0.76245272 0.55564016 0.026672922
0.086954102 0.13088965 2.1174428 -0.22602977 -0.81338823 0.53682363 0.011255255
0.069978751 0.13115697 2.1199689 -0.11296543 -0.77038419 0.62782168 0.0098912027
0.055279762 0.13112128 2.1213887 -0.064082295 -0.68678248 0.7240721 0.01282315
0.0071331933 0.13510492 2.1237583 0.16494489 -0.79218298 0.59139478 0.014166477
-0.0033426797 0.13657668 2.121839 0.16792122 -0.86386573 0.47577363 0.011020306
-0.018978497 0.13893203 2.1195598 0.13904157 -0.9157415 0.37696549 0.0043876604
-0.033456627 0.14186411 2.1191366 0.010609204 -0.93794054 0.34706035 0.0044321511
-0.04792425 0.14114057 2.1205368 -0.22414543 -0.92045569 0.32687369 0.0093581844
-0.062907897 0.14057548 2.1263335 -0.3552202 -0.90226573 0.24463338 0.0041593579
-0.13809742 0.14285488 2.1319361 0.04549291 -0.79688555 0.60467184 0.064923547
-0.14873727 0.14266902 2.1313019 -0.20238504 -0.73503906 0.64985675 0.058724351
-0.47490808 0.17099723 2.1493182 0.87555963 0.4109292 -0.25403225 0
0.30520949 0.11218907 2.0841205 0.55616778 -0.43914488 0.70702714 0.024068609
0.29552683 0.1183169 2.0831661 0.44185719 -0.36406764 0.82344598 0.01905895
0.27929768 0.12351736 2.0827658 0.21959624 -0.21537311 0.95261383 0.028223336
0.26401511 0.12543537 2.084707 0.0075482051 -0.10538118 0.99451143 0.029506093
0.2488021 0.1254469 2.0852971 -0.04289782 -0.1045199 0.99479288 0.017682975
0.23379457 0.12345701 2.0861058 -0.11481333 -0.29384187 0.9528054 0.048593275
0.21829887 0.12011883 2.0878859 -0.18498553 -0.54844248 0.82069409 0.048221353
0.20394138 0.11891599 2.0910127 -0.069967963 -0.66277373 0.76548159 0.0280941
0.18980527 0.12070789 2.0902953 0.18493862 -0.68001205 0.7283262 0.016290458
0.17591129 0.12635225 2.0908575 0.31956786 -0.69738585 0.64301193 0.0096143866
0.16233267 0.13326536 2.0882287 0.30672619 -0.69908559 0.65016627 0.024384694
0.13811055 0.13431054 2.0848396 -0.2205787 -0.69407195 0.68654329 0.029242184
0.12669048 0.1338951 2.0913525 -0.3901718 -0.66823727 0.63865376 0.020018175
0.11522693 0.13040683 2.0949695 -0.43819669 -0.62241453 0.64908683 0.021143937
0.10670645 0.12650518 2.099602 -0.4189854 -0.65588111 0.62845838 0.018674159
0.30577245 0.1099226 2.0688424 0.65693378 -0.26598755 0.70681536 0.0051929699
0.29389009 0.11877069 2.0694401 0.52936667 -0.17403968 0.83221751 0.015179879
0.23154157 0.12394873 2.0767949 -0.24149816 -0.09950617 0.96557522 0.028700937
0.21824251 0.11921056 2.0731103 -0.32895455 -0.12029148 0.93712026 0.019101335
0.20252763 0.11420197 2.0745721 -0.093138456 -0.25365016 0.96446145 0.035318371
0.1883651 0.11526331 2.0755978 0.20188649 -0.31336829 0.93429494 0.039482642
0.17430221 0.12162611 2.0766439 0.25579262 -0.41144949 0.88338614 0.014411053
0.15912445 0.12694998 2.0764611 0.19575964 -0.54588002 0.81479865 0.032124262
0.14377403 0.12797394 2.0772977 -0.15398803 -0.68535739 0.72071004 0.031742707
0.12851846 0.12450365 2.0792325 -0.45438343 -0.66553456 0.59269655 0.010763485
0.11775544 0.12187071 2.0834832 -0.47870228 -0.69219452 0.54014468 0.011971752
-0.48774245 0.15504453 2.1211958 0.5442943 -0.4535048 -0.71762478 0.00066762423
0.30477741 0.10922161 2.0527494 0.7242682 -0.25725883 0.64029813 0.0031126325
0.29702285 0.1173898 2.0555828 0.65730137 -0.20065525 0.72661114 0.0026459289
0.21461903 0.12146156 2.0621991 -0.34276119 -0.0046958774 0.94327235 0.0087121055
0.20355727 0.11943729 2.0584857 -0.20976149 -0.14131832 0.97279274 0.032548893
0.18850353 0.11838488 2.0589767 0.084871598 -0.25990534 0.96594024 0.029949233
0.17332551 0.12259627 2.0606649 0.21276987 -0.28170949 0.93957388 0.017777527
0.15773611 0.12515189 2.0615721 0.069586322 -0.36922088 0.93199104 0.015836207
0.14247395 0.1241027 2.0624983 -0.24899779 -0.42248118 0.88507271 0.026755124
0.12899525 0.11784841 2.0650597 -0.54803318 -0.49631971 0.67502934 0.022357017
-0.50008029 0.16328813 2.1064961 0.36575496 -0.6118018 -0.70339197 0.0033340182
-0.51373047 0.15749028 2.1045659 0.30476791 -0.63830411 -0.70993006 0.0018262789
-0.52348328 0.15268168 2.1043065 0.4714731 -0.31605896 -0.93950123 0.00077390368
0.3058506 0.10641319 2.039793 0.75408119 -0.25365755 0.60602301 0.0087529672
0.19771761 0.11832377 2.0430694 -0.25781122 -0.59100139 0.82106781 0.087882519
0.18705603 0.11744703 2.0448556 0.040895004 -0.60687298 0.87418872 0.063382976
0.17484677 0.11843318 2.0424118 0.1540671 -0.67770517 0.75579131 0.05523457
0.13764757 0.12169686 2.0478981 -0.40847459 -0.42347249 0.81918842 0.03560856
0.12859979 0.11321978 2.0507612 -0.65353483 -0.39278814 0.65004152 0.010165771
0.31004596 0.10039834 2.0236571 0.8297506 -0.54048294 0.27223185 0.090060122
0.2944935 0.10653842 2.0147045 0.6034472 -0.94626427 0.097669818 0.12562181
0.2675395 0.10544148 2.0189281 -0.21588358 -0.88103175 -0.4226855 0.027313417
0.25889209 0.099616937 2.0231209 -0.31315568 -0.89243114 -0.33800539 0.011217857
0.24484102 0.099592797 2.029809 -0.17084862 -0.95907956 -0.24694151 0.0090877702
0.23333196 0.10028584 2.0304592 -0.1082752 -0.94777977 -0.30008411 0.0044155526
0.21369496 0.10658648 2.0300276 -0.26243269 -0.96409875 -0.068404078 0.056626853
0.20109987 0.10734671 2.0345216 -0.23513907 -0.95241356 0.21023132 0.074411318
0.18651488 0.10790969 2.0354843 0.010124614 -0.95930982 0.28423569 0.051965773
0.17087212 0.11058822 2.033726 0.18460761 -0.94083846 0.30206403 0.045344044
0.15633185 0.11111649 2.0291977 0.11845481 -0.96514076 0.26504266 0.040079877
0.13902958 0.1142777 2.0326352 -0.35196885 -0.79060423 0.52369058 0.051413126
0.12933148 0.10866078 2.0373664 -0.58376861 -0.6755482 0.46010646 0.028773952
0.28749806 0.09799327 2.0187624 0.054612618 -0.91703522 -0.39559934 0.057699896
0.27313992 0.095673278 2.0203032 -0.15380412 -0.89927238 -0.41023052 0.014962914
0.14986832 0.10561372 2.0267115 0.00047604548 -0.98541951 0.18108003 0.033876289
0.14096139 0.10451934 2.0263736 -0.13599406 -1.0103852 0.1571448 0.033738319
-0.10714445 0.020065505 1.7067151 -0.68972778 -0.63474977 -0.40176046 0.0079246983
-0.14430594 0.023193881 1.6906588 0.8710165 -0.33897302 -0.3556419 0.00096680073
-0.15111892 0.016879059 1.6788044 0.87383789 -0.33239463 -0.35487726 0.00064516283
-0.43154141 0.034356739 1.6880003 -0.70999324 -0.57402468 -0.41325817 0.018317143
-0.44070193 0.041172735 1.6955447 -0.44272768 -0.82985789 -0.40800893 0.0097068325
-0.47460067 0.045024104 1.7005577 0.31890717 -0.7158215 -0.62406653 0.014369341
-0.48736322 0.036067545 1.6982347 0.56401092 -0.56078488 -0.61887157 0.017326145
-0.41854355 0.027743526 1.6744349 -0.72356331 -0.38693175 -0.57236582 0.013307445
-0.42425844 0.029764015 1.6816016 -0.71759146 -0.47586969 -0.50898939 0.016191736
-0.40457714 0.022748701 1.6612569 0.75595647 0.12990366 0.64195806 0.017832967
-0.41160977 0.029006021 1.6640545 0.75280088 0.23302832 0.62538117 0.013145717
-0.50418741 0.025580009 1.6703403 0.90118927 0.13756475 -0.41878039 0.0095113255
-0.16688031 0.002535389 1.6340482 0.9930461 -0.031028725 -0.1135627 0
-0.40176088 0.022245338 1.6497923 0.80813926 -0.10084873 0.58188558 0.012326417
-0.49965575 0.027959902 1.6515027 0.93558758 0.25058401 -0.27108383 0.001800495
-0.16704275 0.006158859 1.6213617 0.9930526 -0.031026348 -0.11350685 0
-0.40212035 0.018206479 1.6361125 0.83134466 -0.30252197 0.4662464 0.0042530126
-0.49602014 0.029081013 1.6393893 0.89719707 0.36499274 -0.2513862 0.0015540898
-0.40455386 0.015144361 1.6220608 0.84442943 -0.31925389 0.43018645 0.0013260539
-0.49677369 0.012957996 1.6248392 0.88186383 0.38294467 -0.27510971 0.0025991003
-0.40390885 0.01099248 1.6071784 0.83246696 -0.20550057 0.5160802 0.0087698866
-0.48532709 0.021112503 1.6087186 0.72626483 0.58348846 -0.36462763 0.018973561
-0.49090511 0.013905967 1.6108576 0.82094032 0.45799199 -0.37094364 0.024390671
-0.39772636 0.0015445817 1.5924722 0.8776409 -0.094235502 0.47003093 0.0026101328
-0.40175045 0.0092454962 1.5927774 0.8035807 -0.15174 0.57599193 0.019854166
-0.4808853 0.012724247 1.5949585 -0.57895362 -0.4050667 0.71957493 0.070255317
-0.49070436 0.0062807533 1.5998261 0.71700919 0.29240438 -0.63276988 0.054934561
-0.39620984 -0.0018929107 1.5774318 0.92158318 -0.16788936 0.35544717 0.0038083929
-0.39998445 0.0071318196 1.5760151 0.78958374 -0.26004225 0.55606312 0.027028851
-0.44059265 0.0093530575 1.5757564 -0.047654551 -0.55226249 0.83233923 0.062315024
-0.45110103 0.010337682 1.5767431 0.073242687 -0.52245384 0.8517167 0.090660505
-0.47217187 0.012935883 1.582098 -0.16457361 -0.2381236 1.0168319 0.083060876
-0.4819077 0.010180037 1.5827914 -0.30314836 0.031789385 0.97990412 0.091892734
-0.49592412 0.0038838231 1.583095 -0.30886599 0.39036107 0.92419827 0.076608606
-0.50948471 0.0011174158 1.5807161 0.17120191 -0.550883 -0.81833225 0.063084774
-0.52556735 0.0093593327 1.5783772 0.87498069 -1.5250361 0.11800118 0.006672882
-0.39751455 -0.0055458168 1.5625664 0.90646589 -0.17159939 0.39607796 0.012495739
-0.40104958 0.003201342 1.5612913 0.76361507 -0.30347079 0.57016999 0.039483327
-0.44076684 0.0071601877 1.5673852 0.0060622748 -0.29316488 0.95875657 0.063758634
-0.4494763 0.0075873565 1.5684886 0.06983991 -0.33516538 0.96773732 0.063655511
-0.39483342 -0.0076390384 1.5465744 0.85311627 -0.015970297 0.52159077 0.021686008
-0.40139079 0.0012839839 1.5520087 0.75017351 -0.16770302 0.64316851 0.039837353
-0.38469696 -0.015523226 1.5314068 0.87489307 -0.26947582 0.41235858 0.074326508
-0.39162874 -0.0087808203 1.5334668 0.80104309 -0.18669698 0.57132822 0.035203759
-0.38579753 -0.020579968 1.5235343 0.823318 -0.96312618 0.040345229 0.074301124
-0.39469293 -0.017278276 1.5162722 0.48012131 -0.90690428 -0.061000459 0.1086323
-0.40446201 -0.0093422094 1.5151101 0.38275665 -0.92779106 0.035273019 0.039203059
-0.41914478 -0.020559637 1.51353 0.35037297 -0.92468023 -0.30722177 0.017015351
-0.4303191 -0.015320829 1.5089855 0.38697764 -0.92206448 -0.0084485859 0.047037452
-0.4414565 -0.014562547 1.504449 0.48834559 -0.8680774 0.095047034 0.024050726
-0.45441136 -0.01371436 1.4969565 0.47313169 -0.7910856 0.45570663 0.049207907
-0.45034161 -0.017107889 1.4911752 0.032875732 -0.45038962 1.7543066 0.076247163
-0.45670044 -0.016703874 1.4921991 0.55879915 -0.68887901 0.65157288 0.086494587
0.3450717 0.13604388 2.1862755 0.97155368 -0.17781349 0.15641457 0
-0.2541849 0.16826117 2.2138453 -0.21495056 -0.98242849 0.043922752 0.022855591
-0.26134261 0.16742712 2.2143435 -0.10473628 -0.99433964 -0.030443875 0.015527194
-0.47887859 0.17679136 2.2295315 -0.21848334 -0.98011023 -0.1437342 0.054986473
-0.49144366 0.17361449 2.2341623 -0.33751103 -0.94476199 -0.014400384 0.098647855
-0.24010766 0.16380946 2.2051702 -0.52495825 -0.77649128 0.35707992 0.026441894
-0.25095746 0.1602485 2.2108517 -0.36146352 -0.90951133 0.20978934 0.03056014
-0.26797155 0.16248347 2.2141309 -0.060994599 -1.0009521 -0.023847148 0.020686062
-0.28439993 0.15854628 2.2130325 0.18088596 -0.98412251 -0.0278499 0.021732066
-0.29672348 0.16000406 2.2094653 0.42989361 -0.90232098 -0.045404065 0.026955254
-0.43466505 0.1764707 2.2128427 -0.33093691 -0.90881574 0.25534394 0.0059680571
-0.44810864 0.17374714 2.2167051 -0.33283263 -0.89601421 0.29524127 0.0079022916
-0.46083412 0.17403857 2.222538 -0.31366947 -0.93662637 0.15617025 0.022487491
-0.4740153 0.17364909 2.2275367 -0.29065284 -0.96068215 0.030252887 0.050969116
-0.48454735 0.17103687 2.2304211 -0.30408153 -0.96820545 -0.022060443 0.065864362
-0.22826324 0.16066557 2.1840785 -0.62223464 -0.5501402 0.55720198 0.010478159
-0.23764329 0.15614855 2.1929572 -0.62837529 -0.58632869 0.51286352 0.0053031766
-0.30850676 0.15644982 2.1994324 0.76896 -0.60791439 0.19836371 0.046958927
-0.39187664 0.1698499 2.1946609 -0.41525722 -0.836918 0.35738653 0.0067791715
-0.4041591 0.16861971 2.1996248 -0.33055672 -0.88407773 0.33054164 0.0082132081
-0.41812477 0.16680042 2.2031555 -0.27054429 -0.89639515 0.35286349 0.0067953649
-0.43172738 0.16686174 2.2068753 -0.26767546 -0.88936061 0.37118664 0.0090405755
-0.44613793 0.1662008 2.2112534 -0.30676416 -0.86276764 0.40337181 0.013961827
0.34048015 0.11941417 2.1389287 0.94984466 -0.36748829 0.12946804 0.014575756
-0.15602337 0.15313533 2.1637664 -0.13444687 -0.81258446 0.56945479 0.01243503
-0.16757217 0.152835 2.1652794 -0.078817323 -0.89353359 0.44297737 0.019131657
-0.18107109 0.15342148 2.1661685 0.016403282 -0.96269196 0.27267814 0.020341065
-0.19057974 0.15477787 2.1662798 0.034142926 -0.97943139 0.19923037 0.013009707
-0.22815429 0.15619738 2.1746061 -0.53824395 -0.61899066 0.57742399 0.038213391
-0.23657593 0.14942645 2.1782827 -0.57058376 -0.47293663 0.67251599 0.023777762
-0.30678368 0.14822504 2.1797094 0.65324599 -0.34365261 0.68371904 0.070545696
-0.31465027 0.1588542 2.178967 0.70782816 -0.53064567 0.467536 0.050883859
-0.37807634 0.16550983 2.1798666 -0.45963046 -0.75595546 0.46616688 0.0010612144
-0.38949779 0.16383614 2.1874611 -0.43109027 -0.77182567 0.46757889 0.0033258551
-0.40281042 0.15857959 2.1892736 -0.32325426 -0.80112654 0.50425255 0.00512549
-0.4160355 0.15826981 2.1950068 -0.25909668 -0.80747718 0.53022933 0.0074666776
0.33959469 0.11328905 2.1269672 0.8282057 -0.42174432 0.37219974 0.013411515
0.33202666 0.11736871 2.1200399 0.71761477 -0.59261614 0.37182319 0.015592233
0.050458413 0.13791107 2.1373014 -0.18476535 -0.71490282 0.67466545 0.013353102
0.039264802 0.13704036 2.1391315 -0.020872481 -0.708799 0.70658165 0.019974686
0.032253001 0.13846523 2.1405766 0.1261811 -0.74086815 0.66475648 0.019350667
-0.14195804 0.14920153 2.1498792 -0.19381618 -0.60713172 0.770724 0.022478923
-0.15207963 0.14764927 2.1548626 -0.24978517 -0.67075515 0.70339841 0.024436297
-0.16679625 0.1461018 2.1586578 -0.1879856 -0.82360286 0.53539747 0.0096467566
-0.18158256 0.14392573 2.1604273 -0.10983626 -0.90380913 0.41609523 0.014601178
-0.19555525 0.14521004 2.1610911 -0.01820902 -0.94601238 0.32369328 0.0067409147
-0.20952509 0.14776398 2.1605105 -0.030629218 -0.94304514 0.33183491 0.019552378
-0.22549613 0.14837633 2.1614935 -0.2662276 -0.81768775 0.51063538 0.048082657
-0.23997582 0.1436234 2.1659365 -0.39932117 -0.6131655 0.69443494 0.034646612
-0.30544433 0.14726196 2.1743026 0.56088895 -0.38924155 0.73439878 0.042936735
-0.31434208 0.15361083 2.1689103 0.5661419 -0.56919801 0.60656577 0.036491998
-0.32786673 0.15810943 2.1644416 0.34903312 -0.78324544 0.51593781 0.012440979
-0.36374608 0.16017067 2.1642697 -0.34140593 -0.82626492 0.44804221 0.0043573342
-0.37576354 0.15881047 2.1710591 -0.447456 -0.77115363 0.45292336 0.0011946339
-0.38935935 0.15437333 2.176038 -0.40721577 -0.77155107 0.48932368 0.0026983647
-0.39822438 0.15315929 2.1799836 -0.34459913 -0.7758466 0.52857625 0.0032332253
0.33673015 0.10604125 2.1158414 0.70839715 -0.58427238 0.39605433 0.0048166374
0.32858375 0.11221775 2.1124146 0.63150859 -0.67249757 0.38714442 0.0033389104
0.057579156 0.13544482 2.1293342 -0.14879587 -0.69758666 0.70516062 0.01320573
0.040152226 0.13392687 2.130852 -0.023479078 -0.58128905 0.81373936 0.010328585
0.028931217 0.13431777 2.1308873 0.098371342 -0.64516008 0.7585904 0.014636522
0.019169442 0.13527744 2.1290505 0.17319052 -0.71021217 0.68261832 0.017262887
-0.081316903 0.13861102 2.1325471 -0.28178042 -0.94233829 0.18154395 0.0045035663
-0.091940768 0.1372534 2.1340888 -0.20603058 -0.9622426 0.18147887 0.0030254952
-0.10706428 0.1384965 2.1359415 -0.083476298 -0.96352965 0.2555058 0.0097028716
-0.12155304 0.14103861 2.1370561 0.030147236 -0.89727181 0.44927219 0.041321449
-0.13650446 0.14722361 2.1406853 -0.035165589 -0.68865412 0.72448468 0.045952611
-0.15489836 0.14345613 2.1425273 -0.35158202 -0.63518792 0.6885801 0.026579084
-0.16767906 0.13747957 2.1472063 -0.38694981 -0.7167834 0.58055979 0.024469838
-0.17710014 0.13609508 2.1506414 -0.24979214 -0.81301105 0.52698404 0.0055827405
-0.21198453 0.13954064 2.1555331 -0.00066355721 -0.93441319 0.35717469 0.015566339
-0.22623628 0.14038631 2.1555009 -0.13828579 -0.88883811 0.43956444 0.035423763
-0.23793572 0.14102325 2.1582212 -0.25853965 -0.74851656 0.61377102 0.040647522
-0.30705005 0.14224455 2.159785 0.39416492 -0.67266411 0.62762368 0.01844071
-0.31624493 0.14576131 2.1566894 0.40071571 -0.7288906 0.55523634 0.0089015216
-0.33051547 0.1502299 2.1547613 0.22785433 -0.82405847 0.51955205 0.0054945387
-0.34545964 0.1533048 2.1542368 -0.0071776249 -0.88232952 0.47074282 0.0063222642
-0.36147907 0.15227328 2.1565292 -0.3098675 -0.85072809 0.42478895 0.0027950217
-0.37531939 0.14945139 2.1627057 -0.43564147 -0.79941738 0.4137173 0.0005137829
0.3231774 0.10572171 2.1011443 0.61694187 -0.61898595 0.48652184 0.0041296892
0.3144052 0.11144569 2.0965011 0.58034217 -0.62030631 0.53244579 0.016514268
0.095953465 0.12639751 2.1084747 -0.32334509 -0.73445421 0.59819448 0.012619442
0.085156731 0.12398744 2.1115854 -0.206512 -0.79489571 0.57126153 0.01051107
0.070238128 0.12543145 2.113126 -0.041172508 -0.79074216 0.61112809 0.0057146209
0.055233706 0.12736483 2.1137781 0.027970722 -0.71407759 0.70063245 0.012908734
0.041383002 0.13001612 2.1169677 0.022054123 -0.62614691 0.77979857 0.0059412424
0.027896009 0.13026038 2.1180844 0.017737478 -0.61346763 0.78981113 0.0048484374
0.012267605 0.1301851 2.1180997 0.045007352 -0.73516691 0.67764568 0.015774561
-0.0028415979 0.12946016 2.1158156 0.087068871 -0.83813238 0.5413546 0.010554965
-0.015917774 0.13062415 2.1145844 0.12489614 -0.89130503 0.43624717 0.0033962741
-0.054147765 0.13253552 2.1168909 -0.31259552 -0.87461728 0.37066004 0.0052147005
-0.065356836 0.1312063 2.1220806 -0.38996649 -0.86402082 0.32141256 0.0025934302
-0.077751264 0.12966351 2.1269608 -0.34567061 -0.90141523 0.26080027 0.0037371439
-0.091973931 0.12901916 2.1310265 -0.20167138 -0.95762736 0.20734355 0.0034704143
-0.1075412 0.1296635 2.1319282 -0.053029913 -0.98179179 0.18885979 0.0095507829
-0.12447011 0.13151582 2.130182 0.17207864 -0.95617247 0.24104965 0.026500585
-0.137905 0.13595955 2.1252377 0.099039309 -0.93758065 0.33866316 0.054613762
-0.15458114 0.13611469 2.1267099 -0.35403576 -0.8547557 0.3974793 0.052520014
-0.16560522 0.13199958 2.1370711 -0.4879601 -0.73123145 0.47675174 0.02374406
-0.32101482 0.14106202 2.1486042 0.30054086 -0.82557654 0.47818136 0.0091532068
-0.33345824 0.14192593 2.1458037 0.14059642 -0.87893391 0.45629096 0.005556378
-0.34763005 0.14292468 2.1461029 -0.080196336 -0.89589268 0.43878585 0.0040797228
-0.3607623 0.14371172 2.1498442 -0.28609627 -0.86033219 0.4225598 0.0050688023
0.32123831 0.099198334 2.0862648 0.65172905 -0.45580176 0.60754174 0.0028629773
0.31183425 0.10760253 2.0854585 0.61457014 -0.44630602 0.65206283 0.0060671377
0.19941935 0.11629209 2.0859618 0.025994791 -0.60859972 0.81371492 0.041754253
0.10838326 0.12150738 2.0911162 -0.47291291 -0.7005958 0.53451771 0.010497154
0.098495893 0.11965017 2.0974655 -0.4017714 -0.72368473 0.56255388 0.010114728
0.084763192 0.11528358 2.0999224 -0.20167442 -0.79948837 0.56835097 0.0095965089
0.069261439 0.11540724 2.1012707 -0.0037104471 -0.82363921 0.56783158 0.0026607767
0.053298119 0.11884473 2.1019843 0.079638518 -0.8166092 0.57178932 0.0037893576
0.039630279 0.12160945 2.1021197 0.039055958 -0.78992879 0.61332846 0.0064456062
0.026380023 0.12329259 2.1033545 -0.01194791 -0.76484025 0.6444971 0.010660785
0.011620754 0.12204053 2.1041164 -0.076486416 -0.78470343 0.61534882 0.005906045
-0.0043117497 0.11983123 2.1057453 -0.035326302 -0.82728255 0.56090754 0.006378775
-0.01996072 0.12257 2.1073959 0.084928781 -0.87695885 0.47309518 0.0033931644
-0.035079543 0.12601171 2.1074071 -0.0099507356 -0.90254337 0.43088627 0.0032906651
-0.050236568 0.12511081 2.1089983 -0.25696346 -0.86557949 0.43017784 0.0034670045
-0.064013653 0.1223952 2.1144695 -0.4033252 -0.82042581 0.40531415 0.0029378003
-0.14156596 0.12688881 2.1207976 0.053974774 -0.99551845 0.10211445 0.057522144
-0.15480609 0.12718239 2.1234703 -0.29394391 -0.96701264 0.14596094 0.030988911
0.32029438 0.095284492 2.0720334 0.71680009 -0.38902447 0.57890898 0.0049158558
0.31254721 0.10358454 2.0711164 0.68809569 -0.31644347 0.65336734 0.0076431208
0.19723825 0.11502483 2.0824933 0.040801305 -0.49771917 0.87133998 0.04444005
0.11122672 0.11340679 2.0817649 -0.52216816 -0.71416461 0.46649462 0.0092645725
0.100177 0.10908764 2.0861471 -0.44709766 -0.77498198 0.44689295 0.0061631971
0.085394062 0.10851072 2.0921147 -0.23134193 -0.83493537 0.50291955 0.010291982
0.068765283 0.10882282 2.0943296 -0.012979401 -0.86682862 0.50034732 0.007029247
0.052205257 0.11014041 2.0933974 0.078533143 -0.88719743 0.45538116 0.0056852545
0.037460864 0.11237776 2.093076 0.037157934 -0.89783132 0.43969271 0.0078757927
0.023742212 0.11243201 2.0923598 -0.026364472 -0.90260315 0.43050054 0.0051362305
0.010746618 0.11293598 2.0936494 -0.1145811 -0.86261994 0.49373314 0.0089566242
-0.0039409036 0.11331101 2.0978847 -0.089275554 -0.84469718 0.52794391 0.0027139813
-0.022483259 0.1148317 2.0996099 0.022348158 -0.87148893 0.49021301 0.0018354965
-0.03623119 0.1151554 2.0986698 -0.012777934 -0.88667732 0.4622409 0.0017983528
-0.04875489 0.11579955 2.100709 -0.2132393 -0.86170721 0.46389753 0.007722443
-0.48486465 0.15241683 2.1269231 0.6328904 -0.40635598 -0.69166619 0.00066762423
-0.49502194 0.14547355 2.1232405 0.52682805 -0.54665107 -0.65854996 0.0021645965
-0.50753218 0.14311908 2.1170115 0.38023904 -0.61715978 -0.68927908 0.002541913
0.31881291 0.092234991 2.0577002 0.78384525 -0.34433544 0.51749891 0.0024483115
0.31132743 0.10257966 2.0587749 0.74512041 -0.29406607 0.59910178 0.003116172
0.12224183 0.11156476 2.0654418 -0.63730276 -0.5091657 0.58025575 0.015984673
0.11451394 0.10589707 2.0705173 -0.64262074 -0.59035623 0.48880985 0.0084026819
0.10433837 0.10216968 2.0771568 -0.53257155 -0.72280824 0.44147781 0.01144626
0.31733811 0.091493435 2.0428553 0.82503492 -0.43816027 0.36511618 0.044644739
0.12136064 0.10586663 2.0536323 0.70915699 0.40524998 -0.57752723 0.0069213356
0.11596771 0.099243224 2.055824 0.73120332 0.44592246 -0.51662022 0.0059752064
0.31340748 0.09063828 2.0329986 0.81176853 -0.57652777 0.1401325 0.06630303
0.28204796 0.086954497 2.0216758 -0.11416435 -0.88973546 -0.44402051 0.0073999725
0.27542913 0.09265203 2.0207148 -0.13478322 -0.90065277 -0.41328177 0.01327911
0.25694051 0.091658249 2.0251358 -0.24178313 -0.91185063 -0.3338424 0.0099167023
0.24421611 0.088725276 2.0291541 -0.20940346 -0.95406812 -0.22328831 0.0093832882
0.22980897 0.090751298 2.0306063 -0.084792681 -0.96831179 -0.23539545 0.003045181
0.21497455 0.090711556 2.0312817 -0.0853438 -0.96933681 -0.23082651 0.0016590286
0.19987023 0.091175139 2.0320475 -0.054618455 -0.98926681 -0.14648373 0.015380465
0.18363014 0.09299922 2.0321188 0.08138302 -0.99811393 -0.075089015 0.013499453
0.17117076 0.097309723 2.0306654 0.19920614 -0.98231614 0.0054507563 0.013683507
0.16210054 0.10036072 2.0285602 0.17909355 -0.98739386 0.032781243 0.015210697
0.12254641 0.10118967 2.0370982 -0.65317249 -0.61261964 0.45275417 0.029049527
0.11524024 0.094521008 2.0423431 0.69306499 0.5335294 -0.48518997 0.02100268
0.29825568 0.081478365 2.0238898 0.26875943 -0.91818398 -0.31944248 0.046288919
0.278914 0.084047221 2.0225232 -0.11748323 -0.90100837 -0.41802454 0.0066284151
0.26470733 0.091304243 2.0227687 -0.23610078 -0.88399386 -0.40411156 0.010260207
0.16756861 0.089654244 2.028908 0.1872995 -0.97567254 -0.11394439 0.0018592166
0.15318358 0.092832938 2.0251336 0.13240287 -0.99008828 -0.078777619 0.0088282479
0.13817368 0.092054099 2.0243211 -0.159844 -0.9874205 0.016503308 0.027996294
0.12427502 0.092438757 2.0285709 -0.44647071 -0.87852573 0.20068465 0.045430731
0.11711389 0.091421723 2.0343273 -0.60788471 -0.70291167 0.37229875 0.031368528
-0.10441885 0.0044257762 1.7072024 -0.36922351 -0.88930881 -0.2698206 0.0092681944
-0.11480363 0.017762313 1.7120463 -0.32791778 -0.78399956 -0.57456726 0.032254536
-0.12243322 0.019222165 1.7124735 0.040338475 -0.84776074 -0.56175244 0.032397334
-0.13671485 0.014586793 1.7086962 0.56793725 -0.73482335 -0.41041511 0.026270436
-0.14887239 0.0018634712 1.6952159 0.86271966 -0.34621701 -0.36864486 0.00092544087
-0.4602747 0.023147654 1.709675 -0.26515466 -0.74962401 -0.61719674 0.016591186
-0.47067943 0.027660947 1.7093301 0.021126751 -0.7898367 -0.63123435 0.025365466
-0.15716453 0.004600523 1.6748064 0.88697451 -0.2683824 -0.37763405 0.0011894432
-0.4220196 0.015364232 1.6907111 -0.56648308 -0.51588237 -0.64393222 0.01382768
-0.42874497 0.020715868 1.6923589 -0.58428293 -0.57368511 -0.57432288 0.019243583
-0.44212794 0.01718265 1.7022104 -0.47432742 -0.68118322 -0.55953521 0.010126003
-0.48632374 0.021635178 1.708005 0.39229769 -0.68297476 -0.61885029 0.026889762
-0.49667475 0.026970049 1.695703 0.69955629 -0.40607613 -0.59912258 0.027840244
-0.16223587 -0.003066736 1.669154 0.90263152 -0.25286806 -0.34877622 0.0035512997
-0.41358826 0.015753178 1.6814389 -0.62910914 -0.41786271 -0.6554991 0.0066777742
-0.42757162 0.023640685 1.6890501 -0.63069916 -0.5602237 -0.54180336 0.02016245
-0.50414354 0.022408471 1.6864567 0.84749514 -0.16093419 -0.5665049 0.020641377
-0.1666698 -0.0033246323 1.6534051 0.76577657 -0.13885772 -0.79774809 0.0017958003
-0.39251664 0.0055485433 1.6664933 0.81356102 0.19602704 0.55131328 0.020900894
-0.39993817 0.011933451 1.6697549 0.71384585 0.27087581 0.64705026 0.0073080575
-0.40799344 0.019972431 1.670276 -0.6892612 -0.29475239 -0.66219562 0.0084594963
-0.5041272 0.025677493 1.6762758 0.87701762 0.027305713 -0.48141181 0.020054424
-0.16663937 0.00019182781 1.642493 0.71173847 -0.060877163 -0.69980162 2.6353968e-05
-0.39016682 0.0061522718 1.6543151 0.86927694 -0.082628809 0.49211711 0.015875848
-0.39459091 0.013053896 1.652858 0.82918674 -0.10505018 0.55263323 0.012163665
-0.5077191 0.014486734 1.6613303 0.89843458 0.29053339 -0.35307083 0.0031394442
-0.39025623 0.0011277247 1.640298 0.91438758 -0.26843679 0.30464658 0.014123139
-0.39493608 0.0089082848 1.638085 0.83020812 -0.35092422 0.43883711 0.0074649896
-0.393161 -0.0051026987 1.6251471 0.83434582 -0.36323449 0.41583368 0.0020908895
-0.39827162 0.0033862791 1.6228303 0.84073389 -0.32923266 0.43052304 0.0018555004
-0.39419165 -0.008149459 1.609974 0.88118631 -0.18048513 0.43758333 0.0057180799
-0.39797968 -0.00038856672 1.6086638 0.86835569 -0.1566169 0.47111246 0.0030210475
-0.49790853 0.0037768732 1.617398 0.8993873 0.35275796 -0.29465178 0.017336529
-0.39310569 -0.010081645 1.5939071 0.91919863 -0.12554272 0.37325484 0.0028812815
-0.49895221 -0.0024307461 1.5969537 0.68221486 0.0047381818 -0.73299575 0.067983635
-0.39280942 -0.014694296 1.5803447 0.93798649 -0.17714807 0.29859656 0.0021416282
-0.50059146 -0.0020205835 1.5910877 -0.53473216 0.13818002 0.84531069 0.060952563
-0.51004177 -0.0032840073 1.5840093 0.21231954 -0.60687864 -0.7916103 0.052360509
-0.51969898 -0.0020585882 1.5821897 0.12489142 -0.64182371 -0.7651971 0.03357701
-0.5565905 -0.010720359 1.5888549 -0.079397626 -0.91582805 -0.39364293 0
-0.39306468 -0.018087612 1.5663785 0.9487291 -0.074227422 0.30977556 0.0058286404
-0.38548246 -0.028701862 1.5481868 0.93113595 0.15349358 0.33154625 0.029423606
-0.39067471 -0.021668168 1.5527593 0.90350866 0.11209487 0.41466695 0.012011809
-0.38075554 -0.025444509 1.5366286 0.93496895 -0.07317625 0.3625851 0.056949135
-0.38675287 -0.020336118 1.5431776 0.90011382 0.047523998 0.43339506 0.037480514
-0.37926576 -0.030841872 1.5270387 0.89808762 -0.76284677 0.0058271256 0.060570799
-0.41698438 -0.025875228 1.5153376 0.42039067 -0.87320721 -0.49684402 0.020136919
-0.42612305 -0.031351127 1.5120895 0.35681111 -0.88695353 -0.29325554 0.00065321504
-0.49560672 0.16889197 2.232914 -0.40258837 -0.92147958 0.14284495 0.056289371
-0.50210845 0.16820832 2.2359583 -0.48519668 -0.84537065 0.2533474 0.052437134
-0.25514621 0.15027893 2.2068045 -0.40305585 -0.83854538 0.36729929 0.029816518
-0.26712364 0.1497812 2.2111812 -0.17852196 -0.951554 0.25131512 0.036389947
-0.28194499 0.15007856 2.2121854 0.0945637 -0.99854892 0.12655546 0.03262629
-0.29556981 0.1524308 2.2100036 0.42998028 -0.90135592 0.081964679 0.050873891
-0.46689036 0.1625945 2.2190692 -0.3700732 -0.86502296 0.34939474 0.032032032
-0.47776952 0.16280387 2.2235587 -0.38283962 -0.8768599 0.30578026 0.051103774
-0.49203905 0.16318105 2.2276466 -0.48592064 -0.8385033 0.24714836 0.040687412
-0.49984974 0.16113773 2.2320507 -0.65720516 -0.77145988 0.086016074 0.048631147
0.34602243 0.11324573 2.1616826 0.94122964 -0.22864458 -0.24861239 0
-0.24604708 0.14703938 2.1930377 -0.55314773 -0.5530622 0.6233452 0.015853235
-0.25436932 0.14269149 2.1977484 -0.47264192 -0.59884179 0.66192687 0.028769733
-0.26710328 0.14009146 2.2041364 -0.26100671 -0.75319237 0.61101532 0.031519681
-0.28595898 0.14036949 2.207849 0.17482612 -0.85600525 0.49861231 0.075142704
-0.30212945 0.14356674 2.2031558 0.59161007 -0.69800079 0.42094505 0.10934175
-0.30819908 0.15041578 2.1968367 0.79357886 -0.56853932 0.28510568 0.048511278
-0.43766233 0.15997669 2.2026405 -0.23386532 -0.82859379 0.50884932 0.016154099
-0.44889057 0.1597539 2.2062485 -0.26858386 -0.79932708 0.53848529 0.016530834
-0.46298313 0.15663892 2.2102551 -0.31445786 -0.74345678 0.59378856 0.0096799536
-0.4788208 0.1539204 2.213249 -0.38676655 -0.67122322 0.65734446 0.053798124
-0.48962227 0.15142876 2.2182755 -0.59468192 -0.63964498 0.49475464 0.063942835
0.340947 0.10919114 2.1469457 1.3710796 0.012310827 -0.53034496 0.01075844
-0.24520382 0.14337096 2.181989 -0.46886572 -0.42010859 0.7781803 0.023222387
-0.25626376 0.13703822 2.1852269 -0.30680293 -0.30965167 0.90089059 0.040808994
-0.26865417 0.13632368 2.1826789 -0.10939698 -0.24008706 0.96715754 0.02394454
-0.28575006 0.13834779 2.1796856 0.2053957 -0.22933109 0.95171267 0.029528862
-0.30111071 0.14142919 2.1859834 0.51933736 -0.22531825 0.8269558 0.046039835
-0.30937746 0.14890189 2.1891701 0.77988094 -0.31668696 0.54721576 0.077430651
-0.40911594 0.15397109 2.1863265 -0.27163103 -0.77539253 0.57032752 0.0032971515
-0.42114854 0.15407284 2.1909301 -0.21328025 -0.77248889 0.59817398 0.0023670818
-0.43386441 0.15366668 2.1945157 -0.17929606 -0.75931066 0.62791729 0.0069237524
-0.44857937 0.15232393 2.1962028 -0.19323479 -0.705042 0.68570358 0.0079197949
-0.46330848 0.1492404 2.1958313 -0.18319127 -0.61679012 0.76686311 0.0096680829
-0.47658658 0.1467461 2.1975801 -0.21228129 -0.54617161 0.81106818 0.013189312
-0.49046886 0.14333126 2.1952271 -0.27966428 -0.50972998 0.8189038 0.015235622
0.34780464 0.092621706 2.1255414 0.99960655 -0.089121811 0.31467924 0.007925339
-0.19392571 0.13699494 2.1558414 -0.059001256 -0.91054142 0.41055354 0.010487499
-0.24731047 0.1404842 2.1628301 -0.24825589 -0.58708149 0.77144843 0.028725836
-0.25573975 0.1387687 2.167747 -0.25029323 -0.44012412 0.86235791 0.031643722
-0.27001971 0.13814504 2.1699123 -0.065827131 -0.3878831 0.92424178 0.036971629
-0.2856532 0.13911003 2.1710413 0.17502636 -0.40569848 0.90384275 0.056831297
-0.29982835 0.1432859 2.1695006 0.465267 -0.42199141 0.77928722 0.045143738
-0.39321426 0.14747691 2.1713829 -0.36993086 -0.80664933 0.46199349 0.0054919417
-0.40638304 0.14772187 2.1771998 -0.27752548 -0.80349791 0.52864283 0.0063283015
-0.42093462 0.14560921 2.1788454 -0.188694 -0.82072651 0.5399189 0.0076073641
-0.43488777 0.14441961 2.1804423 -0.13642159 -0.83241612 0.53926927 0.0068150433
-0.45068747 0.1439192 2.1819255 -0.077291399 -0.81470978 0.57519501 0.015871236
-0.46638486 0.1443319 2.1820898 -0.040781584 -0.69364983 0.72374415 0.029143982
-0.47997355 0.14305051 2.182945 -0.15586489 -0.59622252 0.78865844 0.023454251
-0.48800644 0.14272514 2.1905951 -0.28654552 -0.52396625 0.80954677 0.012007419
0.34794587 0.089777566 2.1185372 0.91400325 -0.3728098 0.31083712 0.013301537
0.33962637 0.09889245 2.1135058 0.72623992 -0.54938328 0.4158642 0.0085914284
-0.17147426 0.13029438 2.1406188 -0.42183194 -0.75941885 0.49564826 0.02184494
-0.18231234 0.13059446 2.1469247 -0.26328769 -0.83856124 0.47713137 0.0045319567
-0.19702595 0.13009749 2.1499302 -0.082648829 -0.90141916 0.42887902 0.0086797122
-0.21280029 0.13136731 2.1498423 -0.011476324 -0.93142039 0.36380953 0.0032869834
-0.22822511 0.13257734 2.1502833 -0.064456113 -0.91767651 0.39297512 0.007673041
-0.24314153 0.13406986 2.1525702 -0.14427562 -0.84045881 0.53510833 0.013197616
-0.25701675 0.13301967 2.1535356 -0.15014607 -0.78025115 0.61424029 0.014022334
-0.2714918 0.13232245 2.1559813 -0.076863155 -0.74208754 0.66998297 0.020549271
-0.28733483 0.13244405 2.1574945 0.097105682 -0.76344877 0.64430159 0.020773243
-0.3019025 0.13644208 2.1559417 0.34385318 -0.75525182 0.55918396 0.013330162
-0.31312528 0.13882919 2.1508777 0.34466445 -0.79931152 0.49270618 0.011341104
