# .PCD v0.7 - Point Cloud Data file format
VERSION 0.7
FIELDS x y z
SIZE 4 4 4
TYPE F F F
COUNT 1 1 1
WIDTH 1512
HEIGHT 1
VIEWPOINT 0 0 0 1 0 0 0
POINTS 1512
DATA ascii
0.79937124 0.10005941 1.9620001
0.80078423 0.099600419 1.9530001
0.8058641 0.099600419 1.9530001
0.81135911 0.099651419 1.9540001
0.81685936 0.099702418 1.955
0.82194442 0.099702418 1.955
0.82745248 0.099753417 1.9560001
0.83254009 0.099753417 1.9560001
0.84148186 0.10021241 1.9650002
0.84185368 0.099651419 1.9540001
0.84606922 0.09954942 1.9520001
0.84983838 0.09939643 1.9490001
0.8527146 0.099141434 1.9440001
0.85600603 0.098937437 1.9400001
0.85972053 0.098784439 1.937
0.86386585 0.098682441 1.9350001
0.86710268 0.098478451 1.9310001
0.87122202 0.098376453 1.9290001
0.87487668 0.098223455 1.9260001
0.87851572 0.098070458 1.9230001
0.88167977 0.097866468 1.9190001
0.87881631 0.096999489 1.9020001
0.88051093 0.096642494 1.8950001
0.88216919 0.096285507 1.8880001
0.88520044 0.09608151 1.8840001
0.8872661 0.095775522 1.8780001
0.89167577 0.095724523 1.8770001
0.89655799 0.095724523 1.8770001
0.90288085 0.095877521 1.8800001
0.91549653 0.096693501 1.8960001
0.91848624 0.096489497 1.8920001
0.92633581 0.096795492 1.8980001
0.93912303 0.097611472 1.914
0.94607455 0.097815469 1.9180001
0.95255095 0.097968467 1.9210001
0.95904291 0.098121464 1.9240001
0.96555048 0.098274454 1.927
0.97157001 0.098376453 1.9290001
0.97759992 0.098478451 1.9310001
0.98364025 0.09858045 1.9330001
0.98866802 0.09858045 1.9330001
-0.53008759 0.10671704 1.9910001
-0.49828124 0.10130347 1.8900001
-0.49388731 0.10141066 1.8920001
-0.48664024 0.10092827 1.8830001
-0.4804633 0.10066027 1.8780001
-0.47329938 0.10017787 1.8690001
-0.46718487 0.099909872 1.8640001
-0.46109638 0.099641874 1.8590001
-0.45552474 0.099481076 1.8560001
-0.45045438 0.099427477 1.8550001
-0.44538921 0.099373877 1.8540001
-0.44056693 0.099373877 1.8540001
-0.43574458 0.099373877 1.8540001
-0.43115473 0.099427477 1.8550001
-0.42632979 0.099427477 1.8550001
-0.42173207 0.099481076 1.8560001
-0.41712919 0.099534675 1.8570001
-0.41252106 0.099588275 1.858
-0.40768832 0.099588275 1.858
-0.40242198 0.099481076 1.8560001
-0.39738023 0.099427477 1.8550001
-0.3925553 0.099427477 1.8550001
-0.38752136 0.099373877 1.8540001
-0.38414395 0.099749073 1.8610001
-0.37950724 0.099802673 1.8620001
-0.37466413 0.099802673 1.8620001
-0.36982098 0.099802673 1.8620001
-0.36517388 0.099856272 1.863
-0.36032814 0.099856272 1.863
-0.35758132 0.10044587 1.8740001
-0.352707 0.10044587 1.8740001
-0.34783265 0.10044587 1.8740001
-0.3429583 0.10044587 1.8740001
-0.3362799 0.099909872 1.8640001
-0.33232057 0.10017787 1.8690001
-0.32763445 0.10023148 1.8700001
-0.32294312 0.10028507 1.8710001
-0.3184166 0.10039227 1.8730001
-0.31371224 0.10044587 1.8740001
-0.3090027 0.10049947 1.8750001
-0.30396354 0.10044587 1.8740001
-0.29908922 0.10044587 1.8740001
-0.29421487 0.10044587 1.8740001
-0.28934053 0.10044587 1.8740001
-0.28446618 0.10044587 1.8740001
-0.27959183 0.10044587 1.8740001
-0.27515727 0.10060667 1.8770001
-0.27099511 0.10087467 1.8820001
-0.26694828 0.10119627 1.8880001
-0.26203752 0.10119627 1.8880001
-0.25739917 0.10130347 1.8900001
-0.25261676 0.10135707 1.891
-0.24704327 0.10108907 1.886
-0.24265128 0.10130347 1.8900001
-0.23723216 0.10108907 1.886
-0.23232661 0.10108907 1.886
-0.22717988 0.10098187 1.8840001
-0.22239754 0.10103547 1.8850001
-0.21749456 0.10103547 1.8850001
-0.21270439 0.10108907 1.886
-0.2080192 0.10119627 1.8880001
-0.20343116 0.10135707 1.891
-0.19914247 0.10167866 1.8970001
-0.19451544 0.10183946 1.9000001
-0.18977302 0.10194666 1.9020001
-0.18511736 0.10210747 1.9050001
-0.18035154 0.10221466 1.9070001
-0.1755753 0.10232186 1.909
-0.1706993 0.10237546 1.9100001
-0.16573131 0.10237546 1.9100001
-0.16076334 0.10237546 1.9100001
-0.15579537 0.10237546 1.9100001
-0.15066944 0.10226826 1.9080001
-0.1456303 0.10221466 1.9070001
-0.14044882 0.10205386 1.904
-0.13521178 0.10183946 1.9000001
-0.13006413 0.10167866 1.8970001
-0.12611939 0.10248266 1.9120001
-0.12089277 0.10226826 1.9080001
-0.11574771 0.10210747 1.9050001
-0.10887349 0.10033868 1.8720001
-0.10372656 0.10007067 1.8670001
-0.098658592 0.099856272 1.863
-0.093510725 0.099534675 1.8570001
-0.088537335 0.099373877 1.8540001
-0.083534397 0.099159479 1.8500001
-0.078594826 0.098998681 1.8470001
-0.073710799 0.098891474 1.845
-0.068762489 0.098677076 1.8410001
-0.044065233 0.097015485 1.8100001
-0.039183397 0.096586689 1.802
-0.0046690176 0.07075163 1.3200001
-0.0012319039 0.070537232 1.3160001
0.0021927259 0.070590824 1.317
0.0056140264 0.070537232 1.3160001
0.0089889215 0.070162028 1.309
0.012384211 0.070108429 1.3080001
0.015774298 0.070054829 1.307
0.019159185 0.070001237 1.3060001
0.022521596 0.069894031 1.304
0.025893478 0.069840431 1.3030001
0.029260155 0.069786832 1.302
0.032521334 0.069518834 1.2970001
0.056707602 0.10039227 1.8730001
0.061645102 0.10049947 1.8750001
0.066592999 0.10060667 1.8770001
0.071551308 0.10071387 1.8790001
0.076601379 0.10092827 1.8830001
0.081585698 0.10103547 1.8850001
0.086672179 0.10124987 1.8890001
0.09177947 0.10146426 1.8930001
0.096856497 0.10162507 1.8960001
0.10184174 0.10167866 1.8970001
0.1068322 0.10173227 1.8980001
0.11182785 0.10178586 1.899
0.11676722 0.10178586 1.899
0.12170658 0.10178586 1.899
0.12657928 0.10173227 1.8980001
0.13144675 0.10167866 1.8970001
0.13630903 0.10162507 1.8960001
0.14124058 0.10162507 1.8960001
0.14617217 0.10162507 1.8960001
0.15118341 0.10167866 1.8970001
0.15619989 0.10173227 1.8980001
0.16113666 0.10173227 1.8980001
0.16607343 0.10173227 1.8980001
0.17092009 0.10167866 1.8970001
0.17576155 0.10162507 1.8960001
0.18059783 0.10157146 1.8950001
0.18542887 0.10151786 1.8940001
0.19015422 0.10141066 1.8920001
0.19497229 0.10135707 1.891
0.19989085 0.10135707 1.891
0.20480941 0.10135707 1.891
0.20972796 0.10135707 1.891
0.21476005 0.10141066 1.8920001
0.21979733 0.10146426 1.8930001
0.22495851 0.10157146 1.8950001
0.23000878 0.10162507 1.8960001
0.23506427 0.10167866 1.8970001
0.23999843 0.10167866 1.8970001
0.2448035 0.10162507 1.8960001
0.24960333 0.10157146 1.8950001
0.25439799 0.10151786 1.8940001
0.25891361 0.10135707 1.891
0.26369262 0.10130347 1.8900001
0.26832435 0.10119627 1.8880001
0.27294567 0.10108907 1.886
0.27755657 0.10098187 1.8840001
0.28305665 0.10119627 1.8880001
0.28583202 0.10044587 1.8740001
0.29024097 0.10028507 1.8710001
0.29605392 0.10060667 1.8770001
0.30045503 0.10044587 1.8740001
0.30288547 0.099641874 1.8590001
0.30805185 0.099749073 1.8610001
0.30768031 0.098087482 1.83
0.3117573 0.097873084 1.8260001
0.31598678 0.097712286 1.8230001
0.32002473 0.097497888 1.8190001
0.32386336 0.097229891 1.8140001
0.32840046 0.097176291 1.8130001
0.32609251 0.093799509 1.7500001
0.30978021 0.083293959 1.554
0.30978334 0.082221963 1.534
0.30906874 0.080989175 1.511
0.3076131 0.079595581 1.485
0.30916843 0.079005986 1.4740001
0.31109121 0.078523584 1.465
0.31361204 0.078201987 1.4590001
0.3163192 0.077933989 1.4540001
0.31856003 0.077558786 1.447
0.32098722 0.077237196 1.4410001
0.32338318 0.076915592 1.4350001
0.32574794 0.076593995 1.429
0.32831204 0.076325998 1.424
0.33085012 0.076058 1.419
0.33336222 0.075789995 1.414
0.33632499 0.075629197 1.411
0.3392722 0.075468406 1.4080001
0.34220377 0.075307608 1.4050001
0.34536591 0.075200409 1.4030001
0.34901515 0.075200409 1.4030001
0.35216168 0.075093202 1.401
0.35555175 0.075039603 1.4000001
0.3594498 0.075093202 1.401
0.36283469 0.075039603 1.4000001
0.36621433 0.074986003 1.399
0.36985323 0.074986003 1.399
0.37375903 0.075039603 1.4000001
0.37740049 0.075039603 1.4000001
0.38104191 0.075039603 1.4000001
0.38440862 0.074986003 1.399
0.38804746 0.074986003 1.399
0.40148544 0.076861992 1.434
0.42216998 0.080077976 1.4940001
0.44145554 0.082972363 1.5480001
0.44979861 0.083776362 1.5630001
0.48551548 0.089618728 1.6720001
0.51447481 0.094121099 1.756
0.53914183 0.097765885 1.8240001
0.56088257 0.10082106 1.881
0.57720494 0.10285786 1.9190001
0.5821963 0.10285786 1.9190001
0.58841163 0.10307226 1.9230001
0.59433919 0.10323305 1.9260001
0.6012159 0.10355465 1.932
0.60686874 0.10366186 1.9340001
0.6125319 0.10376906 1.9360001
0.61756748 0.10376906 1.9360001
0.62228155 0.10371545 1.9350001
0.62666613 0.10360825 1.9330001
0.63136709 0.10355465 1.932
0.63606298 0.10350106 1.9310001
0.64008957 0.10334025 1.9280001
0.64476973 0.10328665 1.927
0.64944476 0.10323305 1.9260001
0.65649313 0.10355465 1.932
0.66151834 0.10355465 1.932
0.66688854 0.10360825 1.9330001
0.67017835 0.10334025 1.9280001
0.67624378 0.10350106 1.9310001
0.68232477 0.10366186 1.9340001
0.68806601 0.10376906 1.9360001
0.69417566 0.10392985 1.9390001
0.69994026 0.10403705 1.9410001
0.70607853 0.10419785 1.9440001
0.7115007 0.10425145 1.9450001
0.71655971 0.10425145 1.9450001
0.72198981 0.10430505 1.9460001
0.73265558 0.10510904 1.9610001
0.73888487 0.10526985 1.9640001
0.74437219 0.10532345 1.9650002
0.75024599 0.10543065 1.9670001
0.75536221 0.10543065 1.9670001
0.76086509 0.10548424 1.9680001
0.76559472 0.10543065 1.9670001
0.76992732 0.10532345 1.9650002
0.77030534 0.10468025 1.9530001
0.77538514 0.10468025 1.9530001
0.78006536 0.10462665 1.9520001
0.78554481 0.10468025 1.9530001
0.79426807 0.10516265 1.9620001
0.8001861 0.10526985 1.9640001
0.80652463 0.10543065 1.9670001
0.80751461 0.10489465 1.9570001
0.81302005 0.10494824 1.9580001
0.81853068 0.10500184 1.9590001
0.82404655 0.10505544 1.96
0.8291446 0.10505544 1.96
0.83849895 0.10559145 1.9700001
0.83934069 0.10505544 1.96
0.84357703 0.10494824 1.9580001
0.84736949 0.10478745 1.955
0.85114652 0.10462665 1.9520001
0.85446912 0.10441225 1.9480001
0.85821217 0.10425145 1.9450001
0.86149591 0.10403705 1.9410001
0.86565161 0.10392985 1.9390001
0.86889881 0.10371545 1.9350001
0.87302858 0.10360825 1.9330001
0.87669361 0.10344745 1.9300001
0.87988627 0.10323305 1.9260001
0.88351756 0.10307226 1.9230001
0.88066453 0.10216106 1.9060001
0.88236946 0.10178586 1.899
0.88403815 0.10141066 1.8920001
0.88707989 0.10119627 1.8880001
0.88915592 0.10087467 1.8820001
0.89310098 0.10076747 1.8800001
0.89846855 0.10082106 1.881
0.90480185 0.10098187 1.8840001
0.91839361 0.10194666 1.9020001
0.92431176 0.10205386 1.904
0.93072832 0.10221466 1.9070001
0.9410857 0.10280426 1.9180001
0.94804758 0.10301866 1.9220001
0.9550302 0.10323305 1.9260001
0.96153522 0.10339386 1.9290001
0.96805578 0.10355465 1.932
0.97408837 0.10366186 1.9340001
0.98013127 0.10376906 1.9360001
0.9861846 0.10387626 1.9380001
0.99122536 0.10387626 1.9380001
-0.5306201 0.11200811 1.9930001
-0.4993358 0.10644423 1.8940001
-0.49467042 0.10650043 1.8950001
-0.48741552 0.10599463 1.886
-0.4812308 0.10571362 1.881
-0.47431234 0.10526402 1.8730001
-0.46768615 0.10487061 1.8660001
-0.46159244 0.1045896 1.8610001
-0.45577019 0.1043648 1.8570001
-0.45069721 0.10430861 1.8560001
-0.44538921 0.10419621 1.8540001
-0.44056693 0.10419621 1.8540001
-0.43550953 0.10414 1.853
-0.43092227 0.10419621 1.8540001
-0.42632979 0.10425241 1.8550001
-0.42173207 0.10430861 1.8560001
-0.41712919 0.1043648 1.8570001
-0.41252106 0.104421 1.858
-0.40746891 0.1043648 1.8570001
-0.40263879 0.1043648 1.8570001
-0.39780867 0.1043648 1.8570001
-0.39297855 0.1043648 1.8570001
-0.38982058 0.10481441 1.8650001
-0.38496965 0.10481441 1.8650001
-0.38032249 0.10487061 1.8660001
-0.37567019 0.10492681 1.8670001
-0.37081406 0.10492681 1.8670001
-0.36595795 0.10492681 1.8670001
-0.36226228 0.10526402 1.8730001
-0.35815376 0.10548882 1.8770001
-0.35327163 0.10548882 1.8770001
-0.34838948 0.10548882 1.8770001
-0.3411282 0.10475821 1.8640001
-0.33646029 0.10481441 1.8650001
-0.3326762 0.10515162 1.8710001
-0.32798484 0.10520782 1.8720001
-0.32311574 0.10520782 1.8720001
-0.3184166 0.10526402 1.8730001
-0.31371224 0.10532022 1.8740001
-0.3091675 0.10543261 1.876
-0.30412576 0.10537642 1.8750001
-0.29940841 0.10543261 1.876
-0.29468587 0.10548882 1.8770001
-0.28995812 0.10554502 1.8780001
-0.28522515 0.10560122 1.8790001
-0.280487 0.10565742 1.8800001
-0.27603683 0.10582603 1.8830001
-0.27185908 0.10610703 1.8880001
-0.26765525 0.10638803 1.8930001
-0.26287025 0.10644423 1.8940001
-0.25835249 0.10661283 1.8970001
-0.2535519 0.10666904 1.8980001
-0.24874611 0.10672523 1.899
-0.24354999 0.10661283 1.8970001
-0.23861581 0.10661283 1.8970001
-0.23294254 0.10627563 1.891
-0.2279034 0.10621943 1.8900001
-0.22286946 0.10616323 1.8890001
-0.21795608 0.10616323 1.8890001
-0.21315552 0.10621943 1.8900001
-0.20834973 0.10627563 1.891
-0.2037539 0.10644423 1.8940001
-0.19914247 0.10661283 1.8970001
-0.19472019 0.10689384 1.9020001
-0.19007236 0.10706244 1.9050001
-0.18540889 0.10723104 1.9080001
-0.18063526 0.10734344 1.9100001
-0.17585123 0.10745584 1.9120001
-0.17096741 0.10751205 1.9130001
-0.16599163 0.10751205 1.9130001
-0.16110002 0.10756824 1.914
-0.15612163 0.10756824 1.914
-0.1509853 0.10745584 1.9120001
-0.14593576 0.10739965 1.9110001
-0.14074388 0.10723104 1.9080001
-0.13556761 0.10706244 1.9050001
-0.1312297 0.10756824 1.914
-0.12625131 0.10756824 1.914
-0.12095613 0.10728724 1.909
-0.11568695 0.10700624 1.904
-0.10922244 0.10554502 1.8780001
-0.10400435 0.10520782 1.8720001
-0.098870419 0.10492681 1.8670001
-0.093762502 0.10464581 1.8620001
-0.088728353 0.104421 1.858
-0.083760165 0.10425241 1.8550001
-0.078765035 0.1040276 1.8510001
-0.073870607 0.1039152 1.8490001
-0.068911888 0.10369039 1.845
-0.064043477 0.10357799 1.8430001
-0.048907842 0.10200437 1.8150001
-0.043870468 0.10127376 1.802
-0.039226886 0.10138617 1.8040001
-0.0046619433 0.074072599 1.3180001
-0.0012300316 0.073847793 1.314
0.0021927259 0.074016392 1.317
0.0055798986 0.073510595 1.3080001
0.0089820549 0.073510595 1.3080001
0.012374743 0.073454387 1.307
0.01576223 0.073398188 1.3060001
0.019144515 0.073341988 1.3050001
0.022521596 0.073285781 1.304
0.025893478 0.073229589 1.3030001
0.029260155 0.073173381 1.302
0.032621633 0.073117189 1.3010001
0.056404836 0.104702 1.863
0.061645102 0.10537642 1.8750001
0.066628478 0.10554502 1.8780001
0.071589388 0.10565742 1.8800001
0.076601379 0.10582603 1.8830001
0.081715539 0.10610703 1.8880001
0.086855717 0.10638803 1.8930001
0.091924928 0.10655664 1.8960001
0.097009741 0.10672523 1.899
0.10205649 0.10683764 1.9010001
0.10705734 0.10689384 1.9020001
0.1120634 0.10695004 1.9030001
0.11695169 0.10689384 1.9020001
0.12183477 0.10683764 1.9010001
0.12671266 0.10678144 1.9000001
0.13158533 0.10672523 1.899
0.13645281 0.10666904 1.8980001
0.14138958 0.10666904 1.8980001
0.14640345 0.10672523 1.899
0.15134281 0.10672523 1.899
0.15628217 0.10672523 1.899
0.16130646 0.10678144 1.9000001
0.16616091 0.10672523 1.899
0.17110029 0.10672523 1.899
0.17594695 0.10666904 1.8980001
0.18088374 0.10666904 1.8980001
0.18562469 0.10655664 1.8960001
0.19045575 0.10650043 1.8950001
0.19517851 0.10638803 1.8930001
0.20010227 0.10638803 1.8930001
0.20502603 0.10638803 1.8930001
0.21006069 0.10644423 1.8940001
0.21498707 0.10644423 1.8940001
0.22014566 0.10655664 1.8960001
0.22519593 0.10661283 1.8970001
0.23037271 0.10672523 1.899
0.23543601 0.10678144 1.9000001
0.24037798 0.10678144 1.9000001
0.24519083 0.10672523 1.899
0.24999848 0.10666904 1.8980001
0.25480095 0.10661283 1.8970001
0.25932434 0.10644423 1.8940001
0.26397166 0.10633183 1.8920001
0.2687507 0.10627563 1.891
0.27337983 0.10616323 1.8890001
0.27814588 0.10610703 1.8880001
0.28350639 0.10627563 1.891
0.2862896 0.10548882 1.8770001
0.29086149 0.10537642 1.8750001
0.29684255 0.10576982 1.8820001
0.30141702 0.10565742 1.8800001
0.30402598 0.10487061 1.8660001
0.30838293 0.104702 1.863
0.3135649 0.10481441 1.8650001
0.31841585 0.10481441 1.8650001
0.32222679 0.1044772 1.8590001
0.3270621 0.1044772 1.8590001
0.32868379 0.10346559 1.8410001
0.33238545 0.10312839 1.835
0.33366737 0.10206057 1.8160001
0.33186904 0.10009355 1.7810001
0.32969964 0.098070323 1.7450001
0.32964146 0.0967215 1.7210001
0.32421663 0.093855262 1.6700001
0.31059113 0.086436763 1.5380001
0.31029603 0.085256547 1.5170001
0.30782026 0.083514325 1.4860001
0.30958793 0.082952313 1.4760001
0.31087887 0.082277909 1.4640001
0.31361204 0.081996903 1.4590001
0.31610164 0.081659697 1.4530001
0.31856003 0.081322491 1.447
0.32098722 0.080985293 1.4410001
0.32315782 0.08059188 1.434
0.32574794 0.080310881 1.429
0.32808149 0.079973675 1.4230001
0.33061698 0.079692677 1.4180001
0.33336222 0.07946787 1.414
0.33608666 0.079243071 1.4100001
0.33903122 0.079074465 1.4070001
0.34196019 0.078905858 1.404
0.34536591 0.078849666 1.4030001
0.34876639 0.078793459 1.4020001
0.35241306 0.078793459 1.4020001
0.3558057 0.078737259 1.401
0.3594498 0.078737259 1.401
0.36309382 0.078737259 1.401
0.36647612 0.078681059 1.4000001
0.3701176 0.078681059 1.4000001
0.374026 0.078737259 1.401
0.37767002 0.078737259 1.401
0.38104191 0.078681059 1.4000001
0.3846834 0.078681059 1.4000001
0.38804746 0.078624859 1.399
0.4020454 0.080704287 1.4360001
0.42245257 0.08402013 1.4950001
0.44944051 0.08857239 1.5760001
0.4985826 0.096496701 1.7170001
0.52502215 0.10071176 1.7920001
0.55037391 0.10464581 1.8620001
0.57310808 0.10801785 1.9220001
0.57780647 0.10796165 1.9210001
0.58340985 0.10807405 1.9230001
0.5893296 0.10824266 1.9260001
0.59557354 0.10846746 1.9300001
0.60339421 0.10897327 1.9390001
0.60781008 0.10886087 1.937
0.61316466 0.10891706 1.9380001
0.61820549 0.10891706 1.9380001
0.62292469 0.10886087 1.937
0.6276387 0.10880467 1.9360001
0.63234752 0.10874847 1.9350001
0.63672179 0.10863606 1.9330001
0.64108557 0.10852366 1.9310001
0.64543897 0.10841126 1.9290001
0.65011913 0.10835506 1.9280001
0.6571728 0.10869227 1.9340001
0.65946394 0.10824266 1.9260001
0.66516352 0.10835506 1.9280001
0.67087358 0.10846746 1.9300001
0.6769442 0.10863606 1.9330001
0.68267757 0.10874847 1.9350001
0.68877685 0.10891706 1.9380001
0.69489163 0.10908567 1.9410001
0.70102209 0.10925427 1.9440001
0.7064417 0.10931047 1.9450001
0.71223235 0.10942288 1.9470001
0.71729654 0.10942288 1.9470001
0.72273183 0.10947907 1.9480001
0.73340279 0.11032208 1.9630001
0.73926109 0.11043449 1.9650002
0.74475098 0.11049069 1.9660001
0.75024599 0.11054689 1.9670001
0.75536221 0.11054689 1.9670001
0.76086509 0.11060309 1.9680001
0.76598394 0.11060309 1.9680001
0.76561731 0.10981628 1.9540001
0.77069974 0.10981628 1.9540001
0.77578217 0.10981628 1.9540001
0.78126419 0.10987248 1.955
0.78634924 0.10987248 1.955
0.79507768 0.11037829 1.9640001
0.80100095 0.11049069 1.9660001
0.80734468 0.11065929 1.9690001
0.81329137 0.11077169 1.9710001
0.8196637 0.11094029 1.9740001
0.82061982 0.11037829 1.9640001
0.83077347 0.11105269 1.9760001
0.83549011 0.1109965 1.9750001
0.83977586 0.11088409 1.973
0.84105361 0.11037829 1.9640001
0.84530038 0.11026589 1.9620001
0.84910327 0.11009728 1.9590001
0.85289061 0.10992868 1.9560001
0.85666233 0.10976008 1.9530001
0.86041838 0.10959147 1.95
0.86415899 0.10942288 1.9470001
0.86788386 0.10925427 1.9440001
0.87114406 0.10902946 1.9400001
0.87483513 0.10886087 1.937
0.87896484 0.10874847 1.9350001
0.8821705 0.10852366 1.9310001
0.88535529 0.10829885 1.927
0.88297474 0.10739965 1.9110001
0.88469273 0.10700624 1.904
0.88590717 0.10655664 1.8960001
0.88895929 0.10633183 1.8920001
0.89010078 0.10588223 1.8840001
0.89405107 0.10576982 1.8820001
0.8994239 0.10582603 1.8830001
0.90576237 0.10599463 1.886
0.9203251 0.10711864 1.9060001
0.92673904 0.10728724 1.909
0.93316859 0.10745584 1.9120001
0.94010442 0.10768065 1.9160001
0.94656783 0.10784926 1.9190001
0.95651782 0.10841126 1.9290001
0.96003979 0.10824266 1.9260001
0.96955901 0.10874847 1.9350001
0.97610301 0.10891706 1.9380001
0.98215628 0.10902946 1.9400001
0.9882201 0.10914187 1.9420002
0.99327129 0.10914187 1.9420002
-0.53088635 0.11725077 1.9940001
-0.50065398 0.1116646 1.899
-0.49545357 0.1116058 1.8980001
-0.48793241 0.11101779 1.8880001
-0.4817425 0.11072378 1.8830001
-0.47507203 0.11031216 1.876
-0.46843806 0.10990055 1.8690001
-0.46184048 0.10948893 1.8620001
-0.45601562 0.10925373 1.858
-0.45069721 0.10913613 1.8560001
-0.44538921 0.10901852 1.8540001
-0.44032928 0.10895972 1.853
-0.43550953 0.10895972 1.853
-0.43092227 0.10901852 1.8540001
-0.42632979 0.10907733 1.8550001
-0.42173207 0.10913613 1.8560001
-0.41712919 0.10919493 1.8570001
-0.41252106 0.10925373 1.858
-0.40746891 0.10919493 1.8570001
-0.40307245 0.10931253 1.8590001
-0.39823711 0.10931253 1.8590001
-0.39530635 0.10984174 1.868
-0.39065665 0.10990055 1.8690001
-0.38600174 0.10995935 1.8700001
-0.38134158 0.11001815 1.8710001
-0.37667629 0.11007696 1.8720001
-0.37180713 0.11007696 1.8720001
-0.36850613 0.11054737 1.8800001
-0.36129519 0.10984174 1.868
-0.358917 0.11060616 1.881
-0.35383627 0.11054737 1.8800001
-0.3489463 0.11054737 1.8800001
-0.34186023 0.10984174 1.868
-0.3370015 0.10984174 1.868
-0.332854 0.11007696 1.8720001
-0.32816008 0.11013576 1.8730001
-0.32294312 0.11001815 1.8710001
-0.31858659 0.11019456 1.8740001
-0.31404704 0.11031216 1.876
-0.30933231 0.11037096 1.8770001
-0.30445015 0.11037096 1.8770001
-0.29972762 0.11042977 1.8780001
-0.29515687 0.11054737 1.8800001
-0.29042128 0.11060616 1.881
-0.28598416 0.11078257 1.8840001
-0.28138217 0.11090018 1.886
-0.27691638 0.11107659 1.8890001
-0.27272302 0.11137059 1.8940001
-0.26836222 0.1116058 1.8980001
-0.26370302 0.11172341 1.9000001
-0.25916964 0.11189981 1.9030001
-0.25435343 0.11195861 1.904
-0.24940105 0.11195861 1.904
-0.24419191 0.11184101 1.9020001
-0.23924474 0.11184101 1.9020001
-0.23392801 0.1116646 1.899
-0.22874749 0.111547 1.8970001
-0.22334139 0.11131179 1.8930001
-0.21830224 0.11125299 1.8920001
-0.21338108 0.11125299 1.8920001
-0.20868027 0.11137059 1.8940001
-0.20396906 0.1114882 1.8960001
-0.19924745 0.1116058 1.8980001
-0.19492494 0.11195861 1.904
-0.1902719 0.11213502 1.9070001
-0.18560323 0.11231142 1.9100001
-0.1808244 0.11242902 1.9120001
-0.17603517 0.11254662 1.914
-0.17114615 0.11260543 1.9150001
-0.16616517 0.11260543 1.9150001
-0.16126835 0.11266424 1.9160001
-0.15628478 0.11266424 1.9160001
-0.1512222 0.11260543 1.9150001
-0.14616485 0.11254662 1.914
-0.14103894 0.11242902 1.9120001
-0.13585226 0.11225262 1.909
-0.13150395 0.11278184 1.9180001
-0.12638324 0.11266424 1.9160001
-0.12108286 0.11237022 1.9110001
-0.11580847 0.11207622 1.9060001
-0.10957139 0.11078257 1.8840001
-0.1043377 0.11042977 1.8780001
-0.099135205 0.11007696 1.8720001
-0.09401428 0.10978295 1.8670001
-0.08896713 0.10954773 1.863
-0.083940782 0.10931253 1.8590001
-0.078935251 0.10907733 1.8550001
-0.073990464 0.10890092 1.8520001
-0.069061294 0.10872451 1.8490001
-0.064251974 0.10872451 1.8490001
-0.043846127 0.10590203 1.8010001
-0.0046371836 0.077089153 1.3110001
-0.0012281594 0.077147946 1.312
0.0021760766 0.076853938 1.307
0.0055798986 0.076912746 1.3080001
0.0089683207 0.076795146 1.3060001
0.012365275 0.076795146 1.3060001
0.01575016 0.076736338 1.3050001
0.019129844 0.076677531 1.304
0.022487056 0.076559931 1.302
0.025873605 0.076559931 1.302
0.029260155 0.076559931 1.302
0.032621633 0.076501131 1.3010001
0.061349202 0.10972414 1.8660001
0.066628478 0.11042977 1.8780001
0.071627468 0.11060616 1.881
0.076682739 0.11084138 1.8850001
0.0818021 0.11113539 1.8900001
0.086947478 0.11142939 1.8950001
0.092070371 0.1116646 1.899
0.097162999 0.11184101 1.9020001
0.10221754 0.11195861 1.904
0.10722621 0.11201742 1.9050001
0.11218118 0.11201742 1.9050001
0.11713616 0.11201742 1.9050001
0.12202703 0.11195861 1.904
0.12684605 0.11184101 1.9020001
0.13172393 0.11178221 1.9010001
0.13659659 0.11172341 1.9000001
0.14153856 0.11172341 1.9000001
0.14648055 0.11172341 1.9000001
0.15150221 0.11178221 1.9010001
0.15644677 0.11178221 1.9010001
0.16139136 0.11178221 1.9010001
0.16633593 0.11178221 1.9010001
0.17128049 0.11178221 1.9010001
0.17613235 0.11172341 1.9000001
0.18097903 0.1116646 1.899
0.18582049 0.1116058 1.8980001
0.19065675 0.111547 1.8970001
0.19548783 0.1114882 1.8960001
0.2004194 0.1114882 1.8960001
0.20535095 0.1114882 1.8960001
0.21039341 0.111547 1.8970001
0.21544111 0.1116058 1.8980001
0.22049397 0.1116646 1.899
0.22555207 0.11172341 1.9000001
0.23073666 0.11184101 1.9020001
0.23580775 0.11189981 1.9030001
0.24075752 0.11189981 1.9030001
0.24557818 0.11184101 1.9020001
0.25039363 0.11178221 1.9010001
0.2552039 0.11172341 1.9000001
0.25973511 0.111547 1.8970001
0.26439023 0.11142939 1.8950001
0.26917708 0.11137059 1.8940001
0.27381399 0.11125299 1.8920001
0.27858782 0.11119419 1.891
0.28395617 0.11137059 1.8940001
0.28689969 0.11060616 1.881
0.291482 0.11048856 1.8790001
0.29763117 0.11095898 1.8870001
0.30237898 0.11090018 1.886
0.30516648 0.11013576 1.8730001
0.30954164 0.10995935 1.8700001
0.31457368 0.11001815 1.8710001
0.31892803 0.10984174 1.868
0.32136011 0.10901852 1.8540001
0.32530275 0.10872451 1.8490001
0.32939792 0.1084893 1.845
0.33347228 0.1082541 1.8410001
0.33807707 0.10819529 1.84
0.34006789 0.10731327 1.825
0.33933556 0.10560802 1.7960001
0.33691999 0.10343235 1.7590001
0.3306233 0.10013945 1.7030001
0.32501897 0.097140558 1.6520001
0.32014608 0.094435677 1.6060001
0.31099501 0.090554759 1.5400001
0.31152332 0.089555129 1.5230001
0.3084417 0.08755587 1.4890001
0.31147566 0.087320656 1.485
0.3106665 0.086027019 1.4630001
0.31339708 0.085733011 1.4580001
0.31610164 0.085439004 1.4530001
0.31856003 0.085086189 1.447
0.32076445 0.084674582 1.4400001
0.32315782 0.084321767 1.434
0.32551998 0.08396896 1.4280001
0.32808149 0.083674952 1.4230001
0.33038381 0.083322138 1.4170001
0.33312646 0.08308693 1.4130001
0.3358483 0.082851723 1.409
0.33879024 0.082675315 1.406
0.34196019 0.082557715 1.404
0.34536591 0.082498915 1.4030001
0.34876639 0.082440116 1.4020001
0.35241306 0.082440116 1.4020001
0.3560597 0.082440116 1.4020001
0.35970637 0.082440116 1.4020001
0.36309382 0.082381308 1.401
0.36673787 0.082381308 1.401
0.37038195 0.082381308 1.401
0.37429297 0.082440116 1.4020001
0.37793961 0.082440116 1.4020001
0.38158625 0.082440116 1.4020001
0.38495815 0.082381308 1.401
0.38804746 0.082263708 1.399
0.40960476 0.086027019 1.4630001
0.43206015 0.089907937 1.529
0.42577073 0.08779107 1.493
0.51135927 0.10354995 1.761
0.53586245 0.10754848 1.8290001
0.55983251 0.11137059 1.8940001
0.57370448 0.11313465 1.9240001
0.57870883 0.11313465 1.9240001
0.58432001 0.11325225 1.9260001
0.59055352 0.11348746 1.9300001
0.5986594 0.11407547 1.9400001
0.6043278 0.11419308 1.9420002
0.60875148 0.11407547 1.9400001
0.61411387 0.11413428 1.9410001
0.61916244 0.11413428 1.9410001
0.62388951 0.11407547 1.9400001
0.62893546 0.11407547 1.9400001
0.6333279 0.11395787 1.9380001
0.63770998 0.11384027 1.9360001
0.64241356 0.11378147 1.9350001
0.64677733 0.11366386 1.9330001
0.65079349 0.11348746 1.9300001
0.65547377 0.11342866 1.9290001
0.66014874 0.11336985 1.9280001
0.66550857 0.11342866 1.9290001
0.6712212 0.11354626 1.9310001
0.67729437 0.11372267 1.9340001
0.68338317 0.11389907 1.937
0.68948764 0.11407547 1.9400001
0.69560766 0.11425188 1.9430001
0.70138264 0.11436948 1.9450001
0.70716816 0.11448709 1.9470001
0.71259815 0.11454589 1.9480001
0.71840179 0.11466349 1.95
0.72347385 0.11466349 1.95
0.73340279 0.11542791 1.9630001
0.73926109 0.11554553 1.9650002
0.74475098 0.11560432 1.9660001
0.75024599 0.11566313 1.9670001
0.75536221 0.11566313 1.9670001
0.76086509 0.11572193 1.9680001
0.76131332 0.1150163 1.9560001
0.76640093 0.1150163 1.9560001
0.77148861 0.1150163 1.9560001
0.77657622 0.1150163 1.9560001
0.78206342 0.11507511 1.9570001
0.78715372 0.11507511 1.9570001
0.79305357 0.11519271 1.9590001
0.80181581 0.11572193 1.9680001
0.80816472 0.11589833 1.9710001
0.8145293 0.11607473 1.9740001
0.82049417 0.11619234 1.9760001
0.82646942 0.11630994 1.978
0.83161432 0.11630994 1.978
0.83675915 0.11630994 1.978
0.83807331 0.11578073 1.9690001
0.84319478 0.11578073 1.9690001
0.84745455 0.11566313 1.9670001
0.8512705 0.11548672 1.9640001
0.8555069 0.11536912 1.9620001
0.85929418 0.11519271 1.9590001
0.86306584 0.1150163 1.9560001
0.866822 0.1148399 1.9530001
0.87011606 0.1146047 1.9490001
0.87338924 0.11436948 1.9450001
0.87709343 0.11419308 1.9420002
0.88078189 0.11401667 1.9390001
0.88445473 0.11384027 1.9360001
0.88719314 0.11354626 1.9310001
0.88990545 0.11325225 1.9260001
0.88701594 0.11225262 1.909
0.8873089 0.1116646 1.899
0.89083874 0.1114882 1.8960001
0.90521932 0.11266424 1.9160001
0.90925276 0.11254662 1.914
0.91375357 0.11248783 1.9130001
0.91872931 0.11248783 1.9130001
0.92273939 0.11237022 1.9110001
0.9286809 0.11248783 1.9130001
0.93512082 0.11266424 1.9160001
0.94255769 0.11295824 1.9210001
0.94903415 0.11313465 1.9240001
0.9550302 0.11325225 1.9260001
0.96502441 0.11384027 1.9360001
0.97156328 0.11401667 1.9390001
0.9781177 0.11419308 1.9420002
0.98114377 0.11395787 1.9380001
0.99025553 0.11442829 1.9460001
0.9953171 0.11442829 1.9460001
-0.5019722 0.11691099 1.904
-0.49754187 0.11703379 1.9060001
-0.48896617 0.11617415 1.8920001
-0.48250997 0.11580574 1.886
-0.47608498 0.11543732 1.8800001
-0.46893933 0.1148847 1.8710001
-0.4620885 0.11439347 1.863
-0.45626107 0.11414786 1.8590001
-0.45069721 0.11396365 1.8560001
-0.44538921 0.11384085 1.8540001
-0.44056693 0.11384085 1.8540001
-0.43574458 0.11384085 1.8540001
-0.43115473 0.11390226 1.8550001
-0.4265596 0.11396365 1.8560001
-0.42195931 0.11402506 1.8570001
-0.41712919 0.11402506 1.8570001
-0.41252106 0.11408646 1.858
-0.40790775 0.11414786 1.8590001
-0.40350607 0.11427066 1.8610001
-0.39887977 0.11433207 1.8620001
-0.39615282 0.1149461 1.8720001
-0.39170173 0.11506891 1.8740001
-0.38703382 0.11513031 1.8750001
-0.38236067 0.11519171 1.876
-0.37768236 0.11525311 1.8770001
-0.3728002 0.11525311 1.8770001
-0.36693799 0.1149461 1.8720001
-0.36226228 0.1150075 1.8730001
-0.35739052 0.1150075 1.8730001
-0.3523306 0.1149461 1.8720001
-0.34746143 0.1149461 1.8720001
-0.34259227 0.1149461 1.8720001
-0.33844477 0.11519171 1.876
-0.3332096 0.11506891 1.8740001
-0.32798484 0.1149461 1.8720001
-0.32363355 0.11513031 1.8750001
-0.31875658 0.11513031 1.8750001
-0.31404704 0.11519171 1.876
-0.30949712 0.11531452 1.8780001
-0.30493677 0.11543732 1.8800001
-0.30020642 0.11549872 1.881
-0.29562786 0.11562153 1.8830001
-0.2910389 0.11574434 1.8850001
-0.28659135 0.11592855 1.8880001
-0.28212816 0.11611275 1.891
-0.27779597 0.11635836 1.8950001
-0.27344298 0.11660397 1.899
-0.26906916 0.11684959 1.9030001
-0.26453575 0.11703379 1.9060001
-0.25985059 0.1171566 1.9080001
-0.25502136 0.117218 1.909
-0.249925 0.1171566 1.9080001
-0.24470548 0.11703379 1.9060001
-0.2396221 0.11697239 1.9050001
-0.23442076 0.11684959 1.9030001
-0.22910924 0.11666538 1.9000001
-0.22357735 0.11635836 1.8950001
-0.21864837 0.11635836 1.8950001
-0.21360664 0.11629696 1.8940001
-0.20879045 0.11635836 1.8950001
-0.20407663 0.11648117 1.8970001
-0.19945741 0.11666538 1.9000001
-0.19502732 0.11697239 1.9050001
-0.19037168 0.1171566 1.9080001
-0.18560323 0.1172794 1.9100001
-0.18091898 0.11746362 1.9130001
-0.17612715 0.11758642 1.9150001
-0.17123553 0.11764783 1.9160001
-0.16625194 0.11764783 1.9160001
-0.16135252 0.11770923 1.9170001
-0.15636633 0.11770923 1.9170001
-0.15138014 0.11770923 1.9170001
-0.1463176 0.11764783 1.9160001
-0.14126024 0.11758642 1.9150001
-0.13606575 0.11740221 1.9120001
-0.13088688 0.117218 1.909
-0.12658113 0.11783203 1.9190001
-0.12127294 0.11752501 1.914
-0.11599075 0.117218 1.909
-0.1105601 0.11672679 1.9010001
-0.10461549 0.11562153 1.8830001
-0.099399991 0.11525311 1.8770001
-0.094266064 0.1149461 1.8720001
-0.089158148 0.11463909 1.8670001
-0.084121391 0.11439347 1.863
-0.079105459 0.11414786 1.8590001
-0.074150272 0.11396365 1.8560001
-0.06924805 0.11384085 1.8540001
-0.064321473 0.11365664 1.8510001
-0.059378356 0.11341103 1.8470001
-0.054721981 0.11371804 1.8520001
-0.049850971 0.11359524 1.8500001
-0.043919161 0.11077071 1.8040001
-0.004633646 0.080437705 1.3100001
-0.0012262873 0.080437705 1.3100001
0.0021777416 0.080314904 1.3080001
0.0055713668 0.080192097 1.3060001
0.0089614531 0.080130696 1.3050001
0.012355806 0.080130696 1.3050001
0.015726022 0.080007888 1.3030001
0.019100504 0.079946481 1.302
0.022487056 0.079946481 1.302
0.025873605 0.079946481 1.302
0.029260155 0.079946481 1.302
0.032621633 0.079885088 1.3010001
0.061677977 0.11519171 1.876
0.066663958 0.11537591 1.8790001
0.071665548 0.11556013 1.8820001
0.076764099 0.11586714 1.8870001
0.081888661 0.11617415 1.8920001
0.08703924 0.11648117 1.8970001
0.09216734 0.11672679 1.9010001
0.09731625 0.11697239 1.9050001
0.10237859 0.11709519 1.9070001
0.10739507 0.1171566 1.9080001
0.11235784 0.1171566 1.9080001
0.11725913 0.11709519 1.9070001
0.12215522 0.11703379 1.9060001
0.12704611 0.11697239 1.9050001
0.13186251 0.11684959 1.9030001
0.13674037 0.11678818 1.9020001
0.14161305 0.11672679 1.9010001
0.14655764 0.11672679 1.9010001
0.1515819 0.11678818 1.9020001
0.15652907 0.11678818 1.9020001
0.16156115 0.11684959 1.9030001
0.16651092 0.11684959 1.9030001
0.17137058 0.11678818 1.9020001
0.17631775 0.11678818 1.9020001
0.18107434 0.11666538 1.9000001
0.18591839 0.11660397 1.899
0.19085775 0.11660397 1.899
0.19569404 0.11654258 1.8980001
0.2006308 0.11654258 1.8980001
0.20567587 0.11660397 1.899
0.21072614 0.11666538 1.9000001
0.21578164 0.11672679 1.9010001
0.22084232 0.11678818 1.9020001
0.22602691 0.11691099 1.904
0.23110059 0.11697239 1.9050001
0.2361795 0.11703379 1.9060001
0.24113707 0.11703379 1.9060001
0.24596554 0.11697239 1.9050001
0.25078878 0.11691099 1.904
0.25560686 0.11684959 1.9030001
0.26014587 0.11666538 1.9000001
0.26480877 0.11654258 1.8980001
0.26946133 0.11641977 1.8960001
0.27424818 0.11635836 1.8950001
0.27902979 0.11629696 1.8940001
0.28440595 0.11648117 1.8970001
0.2875098 0.11574434 1.8850001
0.29225764 0.11568293 1.8840001
0.29684255 0.11556013 1.8820001
0.30318063 0.11611275 1.891
0.30793628 0.11605135 1.8900001
0.31086588 0.11531452 1.8780001
0.31760004 0.11598995 1.8890001
0.3202939 0.11519171 1.876
0.32742679 0.11598995 1.8890001
0.33146045 0.11568293 1.8840001
0.33600375 0.11556013 1.8820001
0.33981207 0.11519171 1.876
0.34009817 0.11365664 1.8510001
0.34137228 0.11248999 1.8320001
0.33990237 0.11046369 1.7990001
0.33577079 0.10763916 1.7530001
0.32926431 0.1041392 1.6960001
0.32423201 0.10119187 1.6480001
0.32074413 0.098797157 1.6090001
0.31281251 0.095112979 1.549
0.31254604 0.09382353 1.5280001
0.31072032 0.092104249 1.5000001
0.31084642 0.090999 1.4820001
0.31087887 0.089893743 1.4640001
0.31361204 0.089586735 1.4590001
0.3163192 0.089279719 1.4540001
0.31856003 0.088849895 1.447
0.32076445 0.088420078 1.4400001
0.32315782 0.088051654 1.434
0.32551998 0.087683246 1.4280001
0.32785094 0.087314822 1.4220001
0.33015063 0.086946405 1.416
0.33289069 0.086700797 1.4120001
0.33560994 0.086455189 1.4080001
0.33854932 0.086270981 1.4050001
0.34171665 0.086148173 1.4030001
0.34511974 0.086086765 1.4020001
0.34876639 0.086086765 1.4020001
0.35241306 0.086086765 1.4020001
0.3560597 0.086086765 1.4020001
0.35970637 0.086086765 1.4020001
0.36335301 0.086086765 1.4020001
0.36726144 0.086148173 1.4030001
0.3709107 0.086148173 1.4030001
0.37482691 0.086209573 1.404
0.37847877 0.086209573 1.404
0.38213059 0.086209573 1.404
0.38550773 0.086148173 1.4030001
0.40512511 0.088849895 1.447
0.54347998 0.11390226 1.8550001
0.56042373 0.11641977 1.8960001
0.57430083 0.11826185 1.9260001
0.57961118 0.11832325 1.927
0.58523017 0.11844606 1.9290001
0.59116554 0.11863027 1.932
0.5992766 0.1192443 1.9420002
0.6040166 0.11918289 1.9410001
0.60969281 0.1193057 1.9430001
0.61474663 0.1193057 1.9430001
0.62011945 0.11936711 1.9440001
0.62485427 0.1193057 1.9430001
0.6295839 0.1192443 1.9420002
0.63430828 0.11918289 1.9410001
0.63902754 0.11912149 1.9400001
0.64307749 0.11893728 1.937
0.64744651 0.11881448 1.9350001
0.6518051 0.11869167 1.9330001
0.65785235 0.11887588 1.9360001
0.66254556 0.11881448 1.9350001
0.66619855 0.11856887 1.9310001
0.67226398 0.11875308 1.9340001
0.67764455 0.11881448 1.9350001
0.68373597 0.11899868 1.9380001
0.68948764 0.11912149 1.9400001
0.69560766 0.1193057 1.9430001
0.70138264 0.1194285 1.9450001
0.70753133 0.11961272 1.9480001
0.712964 0.11967412 1.9490001
0.71840179 0.11973552 1.95
0.72384489 0.11979692 1.9510001
0.72929311 0.11985832 1.9520001
0.73474652 0.11991972 1.9530001
0.74020517 0.11998113 1.9540001
0.74605042 0.12010393 1.9560001
0.75113803 0.12010393 1.9560001
0.75661236 0.12016534 1.9570001
0.76209176 0.12022674 1.9580001
0.76718456 0.12022674 1.9580001
0.77227741 0.12022674 1.9580001
0.77737021 0.12022674 1.9580001
0.78326225 0.12034954 1.96
0.78836036 0.12034954 1.96
0.79426807 0.12047236 1.9620001
0.80303806 0.12102498 1.9710001
0.80898476 0.12114778 1.973
0.81494194 0.12127059 1.9750001
0.82132465 0.1214548 1.978
0.82730514 0.12157761 1.9800001
0.83287567 0.12163901 1.9810001
0.83506703 0.12120919 1.9740001
0.8402015 0.12120919 1.9740001
0.84533596 0.12120919 1.9740001
0.84960872 0.12108638 1.9720001
0.85343766 0.12090217 1.9690001
0.85812306 0.12084077 1.9680001
0.86192602 0.12065656 1.9650002
0.8657133 0.12047236 1.9620001
0.86948508 0.12028815 1.9590001
0.87324113 0.12010393 1.9560001
0.87563449 0.11973552 1.95
0.87935162 0.11955132 1.9470001
0.88305306 0.11936711 1.9440001
0.88628209 0.11912149 1.9400001
0.8885715 0.11875308 1.9340001
0.89175361 0.11850746 1.9300001
0.88887459 0.11746362 1.9130001
0.90179366 0.11850746 1.9300001
0.90634382 0.11844606 1.9290001
0.90710908 0.11789344 1.9200001
0.91020286 0.11764783 1.9160001
0.91518652 0.11764783 1.9160001
0.9206503 0.11770923 1.9170001
0.92467076 0.11758642 1.9150001
0.93110818 0.11777063 1.9180001
0.93804914 0.11801624 1.9220001
0.94746429 0.11856887 1.9310001
0.95643306 0.11906009 1.9390001
0.96246815 0.11918289 1.9410001
0.96851367 0.1193057 1.9430001
0.97156328 0.11906009 1.9390001
0.97711033 0.11912149 1.9400001
0.98266256 0.11918289 1.9410001
0.99229097 0.11973552 1.95
0.99736297 0.11973552 1.95
-0.50329041 0.12218338 1.909
-0.49675876 0.12179936 1.9030001
-0.48974147 0.12128732 1.8950001
-0.48353335 0.12096731 1.8900001
-0.47709793 0.12058328 1.8840001
-0.46893933 0.11975123 1.8710001
-0.46258458 0.11936721 1.8650001
-0.45675191 0.1191112 1.8610001
-0.45118287 0.11891918 1.858
-0.44586968 0.11879117 1.8560001
-0.44080457 0.11872718 1.8550001
-0.43597963 0.11872718 1.8550001
-0.43138713 0.11879117 1.8560001
-0.42678943 0.11885518 1.8570001
-0.42286819 0.1191112 1.8610001
-0.41735381 0.11891918 1.858
-0.41296512 0.11904719 1.8600001
-0.40856603 0.1191752 1.8620001
-0.40393972 0.1192392 1.863
-0.40123621 0.11987925 1.8730001
-0.3969993 0.12007125 1.876
-0.39253783 0.12019926 1.8780001
-0.3880659 0.12032727 1.8800001
-0.38337976 0.12039126 1.881
-0.37868845 0.12045527 1.8820001
-0.37240297 0.12000725 1.8750001
-0.36791807 0.12013526 1.8770001
-0.36322933 0.12019926 1.8780001
-0.35834458 0.12019926 1.8780001
-0.35345986 0.12019926 1.8780001
-0.34913191 0.12039126 1.881
-0.34423935 0.12039126 1.881
-0.33916643 0.12032727 1.8800001
-0.33392084 0.12019926 1.8780001
-0.32921129 0.12026326 1.8790001
-0.32397875 0.12013526 1.8770001
-0.31926662 0.12019926 1.8780001
-0.31454924 0.12026326 1.8790001
-0.3096619 0.12026326 1.8790001
-0.30542335 0.12051928 1.8830001
-0.3006852 0.12058328 1.8840001
-0.29609883 0.12071129 1.886
-0.29181087 0.12096731 1.8900001
-0.28735033 0.12115932 1.8930001
-0.28302333 0.12141533 1.8970001
-0.27852893 0.12160735 1.9000001
-0.27416295 0.12186336 1.904
-0.26963472 0.12205537 1.9070001
-0.26509091 0.12224738 1.9100001
-0.26025915 0.12231139 1.9110001
-0.25555575 0.1224394 1.9130001
-0.25031796 0.12231139 1.9110001
-0.24509062 0.12218338 1.909
-0.23999946 0.12211937 1.9080001
-0.23466712 0.12192737 1.9050001
-0.2293504 0.12173535 1.9020001
-0.22404929 0.12154334 1.899
-0.21876377 0.12135133 1.8960001
-0.21371941 0.12128732 1.8950001
-0.20890065 0.12135133 1.8960001
-0.20418422 0.12147934 1.8980001
-0.19945741 0.12160735 1.9000001
-0.19502732 0.12192737 1.9050001
-0.19037168 0.12211937 1.9080001
-0.18570042 0.12231139 1.9110001
-0.18091898 0.1224394 1.9130001
-0.17612715 0.1225674 1.9150001
-0.17123553 0.12263141 1.9160001
-0.16633871 0.12269541 1.9170001
-0.16143669 0.12275942 1.9180001
-0.1564479 0.12275942 1.9180001
-0.15145911 0.12275942 1.9180001
-0.14647032 0.12275942 1.9180001
-0.14140777 0.12269541 1.9170001
-0.13627924 0.1225674 1.9150001
-0.13116114 0.1224394 1.9130001
-0.12677902 0.12301543 1.9220001
-0.12146302 0.12269541 1.9170001
-0.11617303 0.12237539 1.9120001
-0.11009483 0.12115932 1.8930001
-0.10483772 0.1207753 1.8870001
-0.099611811 0.12039126 1.881
-0.094467483 0.12007125 1.876
-0.089349166 0.11975123 1.8710001
-0.084302008 0.11949522 1.8670001
-0.079275668 0.1192392 1.863
-0.074310079 0.11904719 1.8600001
-0.06932275 0.11879117 1.8560001
-0.064425722 0.11866317 1.8540001
-0.059442654 0.11834314 1.8490001
-0.054367412 0.11776711 1.84
-0.049850971 0.11840715 1.8500001
-0.0046301088 0.083781056 1.309
-0.0012253511 0.083781056 1.309
0.0021760766 0.083653048 1.307
0.0055713668 0.083589055 1.3060001
0.0089614531 0.083525047 1.3050001
0.012346338 0.083461039 1.304
0.015726022 0.083397038 1.3030001
0.019100504 0.08333303 1.302
0.022487056 0.08333303 1.302
0.025873605 0.08333303 1.302
0.029260155 0.08333303 1.302
0.032621633 0.08326903 1.3010001
0.035922557 0.083077021 1.2980001
0.066699438 0.12032727 1.8800001
0.0717417 0.12058328 1.8840001
0.076804779 0.1208393 1.8880001
0.08201851 0.12128732 1.8950001
0.087176889 0.12160735 1.9000001
0.092361271 0.12192737 1.9050001
0.097469509 0.12211937 1.9080001
0.10259334 0.12231139 1.9110001
0.10756393 0.12231139 1.9110001
0.11253451 0.12231139 1.9110001
0.1174436 0.12224738 1.9100001
0.12234748 0.12218338 1.909
0.12717949 0.12205537 1.9070001
0.13200109 0.12192737 1.9050001
0.13688415 0.12186336 1.904
0.14176205 0.12179936 1.9030001
0.14671183 0.12179936 1.9030001
0.15174128 0.12186336 1.904
0.15669365 0.12186336 1.904
0.16164604 0.12186336 1.904
0.16659841 0.12186336 1.904
0.17146069 0.12179936 1.9030001
0.17641045 0.12179936 1.9030001
0.18126494 0.12173535 1.9020001
0.18611421 0.12167135 1.9010001
0.19105877 0.12167135 1.9010001
0.19600336 0.12167135 1.9010001
0.20094793 0.12167135 1.9010001
0.20600079 0.12173535 1.9020001
0.21105887 0.12179936 1.9030001
0.21612217 0.12186336 1.904
0.22130677 0.12199137 1.9060001
0.22638305 0.12205537 1.9070001
0.23146453 0.12211937 1.9080001
0.23655123 0.12218338 1.909
0.24151661 0.12218338 1.909
0.24635288 0.12211937 1.9080001
0.25118393 0.12205537 1.9070001
0.25587547 0.12192737 1.9050001
0.26055664 0.12179936 1.9030001
0.26522735 0.12167135 1.9010001
0.26988769 0.12154334 1.899
0.27468234 0.12147934 1.8980001
0.27932444 0.12135133 1.8960001
0.28425604 0.12135133 1.8960001
0.28811988 0.1209033 1.8890001
0.29303327 0.1209033 1.8890001
0.29778892 0.1208393 1.8880001
0.30398229 0.12135133 1.8960001
0.30891386 0.12135133 1.8960001
0.31384543 0.12135133 1.8960001
0.31860885 0.12128732 1.8950001
0.32336709 0.12122332 1.8940001
0.32656011 0.12058328 1.8840001
0.33286792 0.12109531 1.8920001
0.33671787 0.12071129 1.886
0.34053662 0.12032727 1.8800001
0.33973071 0.11834314 1.8490001
0.34174496 0.11738309 1.8340001
0.33990237 0.11514296 1.7990001
0.33577079 0.11219878 1.7530001
0.33101159 0.10912659 1.705
0.32580596 0.1059904 1.6560001
0.32134217 0.10317423 1.6120001
0.3164475 0.10029405 1.567
0.31336421 0.098053925 1.5320001
0.31154892 0.096261814 1.5040001
0.31189516 0.095173754 1.4870001
0.31130356 0.093829669 1.4660001
0.31382698 0.093445644 1.46
0.3163192 0.093061626 1.4540001
0.31856003 0.092613593 1.447
0.32054171 0.092101559 1.439
0.32293248 0.091717541 1.4330001
0.32529202 0.091333516 1.427
0.32738984 0.09088549 1.4200001
0.33015063 0.090629473 1.416
0.33265492 0.090309449 1.411
0.33537158 0.090053439 1.4070001
0.33830833 0.089861423 1.404
0.34171665 0.08979743 1.4030001
0.34511974 0.089733422 1.4020001
0.34876639 0.089733422 1.4020001
0.35241306 0.089733422 1.4020001
0.35631368 0.08979743 1.4030001
0.35996294 0.08979743 1.4030001
0.36387134 0.089861423 1.404
0.36752319 0.089861423 1.404
0.37143946 0.089925431 1.4050001
0.37536085 0.089989431 1.406
0.37901789 0.089989431 1.406
0.38267493 0.089989431 1.406
0.38633201 0.089989431 1.406
0.43290791 0.098053925 1.5320001
0.52326488 0.11533497 1.802
0.54201508 0.11840715 1.8500001
0.55953699 0.12115932 1.8930001
0.57668632 0.12378348 1.9340001
0.58171666 0.12378348 1.9340001
0.58735383 0.12391149 1.9360001
0.59300143 0.12403949 1.9380001
0.59896803 0.1242315 1.9410001
0.60463899 0.12435951 1.9430001
0.61000663 0.12442352 1.9440001
0.61569577 0.12455152 1.9460001
0.6207574 0.12455152 1.9460001
0.62549746 0.12448752 1.9450001
0.63055646 0.12448752 1.9450001
0.63528866 0.12442352 1.9440001
0.63968635 0.12429551 1.9420002
0.64573348 0.12448752 1.9450001
0.6501233 0.12435951 1.9430001
0.65450275 0.1242315 1.9410001
0.65887177 0.12410349 1.9390001
0.66357273 0.12403949 1.9380001
0.66861355 0.12403949 1.9380001
0.67400199 0.12410349 1.9390001
0.67799479 0.12391149 1.9360001
0.68373597 0.12403949 1.9380001
0.68948764 0.12416749 1.9400001
0.69560766 0.12435951 1.9430001
0.70138264 0.12448752 1.9450001
0.70716816 0.12461553 1.9470001
0.712964 0.12474354 1.9490001
0.71840179 0.12480754 1.95
0.72421587 0.12493555 1.9520001
0.73340279 0.12563959 1.9630001
0.73512274 0.12506355 1.9540001
0.74058396 0.12512755 1.955
0.74643183 0.12525557 1.9570001
0.75190604 0.12531957 1.9580001
0.75738555 0.12538357 1.9590001
0.76287013 0.12544757 1.96
0.76796818 0.12544757 1.96
0.77346069 0.12551159 1.9610001
0.77856129 0.12551159 1.9610001
0.78406155 0.12557559 1.9620001
0.78956705 0.12563959 1.9630001
0.79548252 0.1257676 1.9650002
0.80100095 0.1258316 1.9660001
0.8069346 0.1259596 1.9680001
0.81287879 0.12608762 1.9700001
0.8192485 0.12627962 1.973
0.825216 0.12640764 1.9750001
0.83119392 0.12653564 1.9770001
0.83675915 0.12659964 1.978
0.84232968 0.12666366 1.9790001
0.84704888 0.12659964 1.978
0.85176295 0.12653564 1.9770001
0.85603827 0.12640764 1.9750001
0.86030328 0.12627962 1.973
0.8645578 0.12615162 1.9710001
0.86880201 0.12602361 1.9690001
0.8721481 0.1257676 1.9650002
0.87547332 0.12551159 1.9610001
0.87743068 0.12506355 1.9540001
0.88115817 0.12487154 1.9510001
0.88441586 0.12461553 1.9470001
0.88810951 0.12442352 1.9440001
0.89500374 0.12467953 1.9480001
0.89914644 0.12455152 1.9460001
0.90188479 0.1242315 1.9410001
0.90319544 0.12371947 1.9330001
0.90728354 0.12359147 1.9310001
0.9141959 0.12384748 1.9350001
0.91922885 0.12384748 1.9350001
0.92091835 0.12339945 1.9280001
0.92641342 0.12346346 1.9290001
0.93963933 0.12455152 1.9460001
0.9451865 0.12461553 1.9470001
0.94976258 0.12455152 1.9460001
0.94893628 0.12378348 1.9340001
0.95544648 0.12397549 1.937
0.96494746 0.12455152 1.9460001
0.96951056 0.12448752 1.9450001
0.97557181 0.12461553 1.9470001
0.98164332 0.12474354 1.9490001
0.98671269 0.12474354 1.9490001
0.99229097 0.12480754 1.95
0.99634004 0.12467953 1.9480001
-0.50460857 0.12748177 1.914
-0.49728084 0.12688233 1.9050001
-0.49051681 0.1264161 1.8980001
-0.48430088 0.12608308 1.8930001
-0.47811088 0.12575005 1.8880001
-0.46944061 0.12475098 1.8730001
-0.46332866 0.12441795 1.868
-0.45748821 0.12415154 1.8640001
-0.45166856 0.12388512 1.8600001
-0.44635013 0.1237519 1.858
-0.44151741 0.1237519 1.858
-0.43644968 0.1236853 1.8570001
-0.43185198 0.1237519 1.858
-0.42747891 0.12388512 1.8600001
-0.42286819 0.12395172 1.8610001
-0.41802767 0.12395172 1.8610001
-0.41363117 0.12408493 1.863
-0.4092243 0.12421814 1.8650001
-0.40654162 0.12488419 1.8750001
-0.40209308 0.1250174 1.8770001
-0.3978458 0.12521721 1.8800001
-0.39337391 0.12535042 1.8820001
-0.38889158 0.12548363 1.8840001
-0.38439882 0.12561683 1.886
-0.37969452 0.12568344 1.8870001
-0.37359464 0.12528381 1.881
-0.36909416 0.12541702 1.8830001
-0.36497006 0.12568344 1.8870001
-0.36006188 0.12568344 1.8870001
-0.35515374 0.12568344 1.8870001
-0.35005996 0.12561683 1.886
-0.34478837 0.12548363 1.8840001
-0.33970764 0.12541702 1.8830001
-0.33498767 0.12548363 1.8840001
-0.32991213 0.12541702 1.8830001
-0.32449657 0.12521721 1.8800001
-0.31977659 0.12528381 1.881
-0.31505144 0.12535042 1.8820001
-0.31032112 0.12541702 1.8830001
-0.30590993 0.12561683 1.886
-0.30132362 0.12575005 1.8880001
-0.29688382 0.12594986 1.891
