# .PCD v0.7 - Point Cloud Data file format
VERSION 0.7
FIELDS x y z
SIZE 4 4 4
TYPE F F F
COUNT 1 1 1
WIDTH 1522
HEIGHT 1
VIEWPOINT 0 0 0 1 0 0 0
POINTS 1522
DATA ascii
1.0275375 0.9100318 3.2540002
1.036636 0.91059107 3.256
1.0582632 0.92205739 3.2970002
1.066837 0.92205739 3.2970002
1.0701916 0.91758275 3.2810001
1.0777375 0.91674376 3.2780001
1.0852675 0.91590476 3.2750001
1.094452 0.91646409 3.2770002
1.101964 0.9156251 3.2740002
1.1097994 0.91506571 3.2720001
1.1179663 0.9147861 3.2710001
1.1264725 0.9147861 3.2710001
1.1353254 0.91506571 3.2720001
1.1378913 0.9103114 3.2550001
1.1586822 0.92009974 3.2900002
1.1675924 0.9203794 3.2910001
1.1911607 0.93212539 3.3330002
1.2005479 0.93268472 3.3350003
1.2103081 0.93352365 3.3380001
1.2335958 0.94471031 3.3780003
1.2434835 0.94554925 3.381
1.2470902 0.94163394 3.3670001
1.256219 0.94191366 3.3680003
1.2769961 0.95086294 3.4000001
1.2862158 0.95114267 3.4010003
1.29506 0.95114267 3.4010003
1.3031372 0.95058328 3.3990002
1.3115902 0.95030361 3.3980002
1.3196493 0.94974428 3.3960001
1.3140064 0.93939668 3.3590002
1.3270731 0.94247299 3.3700001
1.3306836 0.93883729 3.3570001
1.3422061 0.94079494 3.3640001
1.348143 0.93883729 3.3570001
1.3605105 0.94135433 3.3660002
1.3692635 0.94135433 3.3660002
1.3694195 0.93548137 3.3450003
1.3929497 0.94554925 3.381
1.4009125 0.94498998 3.3790002
1.4101167 0.94526964 3.3800001
1.4151281 0.9427526 3.3710001
1.4230494 0.94219333 3.3690002
1.4318104 0.94219333 3.3690002
1.4333022 0.93743902 3.3520002
1.4372866 0.93436265 3.3410001
1.4399157 0.93044734 3.3270001
1.4389884 0.92429471 3.3050001
1.4326911 0.9147861 3.2710001
1.446925 0.91842175 3.2840002
1.4519193 0.91618443 3.2760003
1.4599925 0.91590476 3.2750001
1.4694059 0.91646409 3.2770002
1.4779274 0.91646409 3.2770002
1.4873563 0.91702336 3.279
1.5136751 0.92793036 3.3180001
1.525515 0.92988801 3.325
1.5369298 0.931566 3.3310001
1.5469841 0.93240499 3.3340001
1.5551873 0.93212539 3.3330002
1.5624471 0.93128633 3.3300002
1.5564808 0.92261678 3.2990003
1.5460833 0.91143006 3.2590001
1.5445411 0.9055571 3.2380002
1.551043 0.9044385 3.2340002
1.5430578 0.89492983 3.2
1.5581666 0.8988452 3.2140002
1.5411792 0.88430256 3.1620002
1.5494019 0.88430256 3.1620002
1.5566393 0.88374317 3.1600001
1.5638663 0.8831839 3.1580002
1.5710829 0.88262457 3.1560001
-1.715934 0.89732373 3.1790001
-1.709816 0.89845276 3.1830001
-1.7010043 0.89817053 3.1820002
-1.6847498 0.89393651 3.1670001
-1.6733382 0.89224297 3.1610003
-1.6630111 0.89111382 3.1570001
-1.6521806 0.88970256 3.1520002
-1.6424192 0.88885576 3.1490002
-1.6030924 0.87191981 3.0890002
-1.5713066 0.85893553 3.0430002
-1.5037963 0.82619268 2.927
-0.65971267 0.39009166 1.3820001
-0.65611887 0.39009166 1.3820001
-0.65252507 0.39009166 1.3820001
-0.64893121 0.39009166 1.3820001
-0.6448704 0.3898094 1.381
-0.6408149 0.38952714 1.3800001
-0.63676447 0.38924485 1.3790001
-0.63271922 0.3889626 1.378
-0.62867934 0.38868034 1.3770001
-0.62464452 0.38839805 1.376
-0.62106627 0.38839805 1.376
-0.61659056 0.38783354 1.3740001
-0.61257136 0.38755125 1.373
-0.60900092 0.38755125 1.373
-0.60454863 0.38698673 1.3710001
-0.60054511 0.38670447 1.3700001
-0.59654671 0.38642222 1.3690001
-0.5925535 0.38613993 1.368
-0.58770442 0.38529313 1.365
-0.58329892 0.38472861 1.363
-0.57890379 0.38416407 1.3610001
-0.57367361 0.38303503 1.3570001
-0.56846416 0.38190594 1.353
-0.56327558 0.38077688 1.3490001
-0.55810773 0.37964779 1.345
-0.55296075 0.37851876 1.3410001
-0.5482443 0.37767196 1.3380001
-0.54395062 0.37710744 1.3360001
-0.53966737 0.3765429 1.3340001
-0.53579634 0.37626064 1.3330001
-0.53272933 0.3765429 1.3340001
-0.52965707 0.37682515 1.335
-0.52657962 0.37710744 1.3360001
-0.52349693 0.37738967 1.337
-0.52040911 0.37767196 1.3380001
-0.51770234 0.37823647 1.34
-0.5149852 0.37880099 1.342
-0.51187658 0.37908328 1.3430001
-0.50951982 0.37993008 1.3460001
-0.50677145 0.38049462 1.348
-0.50363946 0.38077688 1.3490001
-0.50087291 0.38134143 1.3510001
-0.49809596 0.38190594 1.353
-0.49494314 0.38218823 1.3540001
-0.49178502 0.38247046 1.355
-0.4886218 0.38275275 1.3560001
-0.48545331 0.38303503 1.3570001
-0.4819245 0.38303503 1.3570001
-0.4783957 0.38303503 1.3570001
-0.4748669 0.38303503 1.3570001
-0.47133806 0.38303503 1.3570001
-0.46815398 0.38331726 1.358
-0.46462256 0.38331726 1.358
-0.4614307 0.38359955 1.3590001
-0.45857057 0.38416407 1.3610001
-0.45570001 0.38472861 1.363
-0.45315078 0.38557541 1.3660001
-0.45025685 0.38613993 1.368
-0.44767904 0.38698673 1.3710001
-0.44476166 0.38755125 1.373
-0.44215527 0.38839805 1.376
-0.4392145 0.3889626 1.378
-0.43657947 0.3898094 1.381
-0.43361533 0.39037392 1.383
-0.43064079 0.39093846 1.3850001
-0.42734751 0.39122072 1.386
-0.42404899 0.39150301 1.3870001
-0.4210484 0.39206752 1.3890001
-0.41773695 0.39234981 1.3900001
-0.41471818 0.39291432 1.3920001
-0.41139364 0.39319658 1.393
-0.40806398 0.39347884 1.3940001
-0.61818498 0.60687196 2.1500001
-0.61316395 0.60743654 2.1520002
-0.60813236 0.60800099 2.154
-0.60253096 0.60800099 2.154
-0.59720683 0.60828334 2.1550002
-0.5916028 0.60828334 2.1550002
-0.58572686 0.60800099 2.154
-0.57985622 0.60771877 2.1530001
-0.57372397 0.60715419 2.151
-0.56760216 0.60658973 2.1490002
-0.56149077 0.60602516 2.1470001
-0.55538976 0.6054607 2.1450002
-0.54904288 0.6046139 2.1420002
-0.54296517 0.60404932 2.1400001
-0.53689796 0.60348475 2.138
-0.53108966 0.60320252 2.1370001
-0.52528661 0.60292029 2.1360002
-0.51973206 0.60292029 2.1360002
-0.51441818 0.60320252 2.1370001
-0.50957543 0.60404932 2.1400001
-0.50518805 0.6054607 2.1450002
-0.50030875 0.60630739 2.148
-0.49587464 0.60771877 2.1530001
-0.49141443 0.60913008 2.158
-0.486478 0.60997689 2.161
-0.48130348 0.6105414 2.1630001
-0.47545883 0.61025918 2.1620002
-0.46983665 0.61025918 2.1620002
-0.46335554 0.60913008 2.158
-0.45710748 0.60828334 2.1550002
-0.45045593 0.60687196 2.1500001
-0.44403729 0.60574293 2.1460001
-0.4378438 0.60489613 2.1430001
-0.4318676 0.60433155 2.141
-0.42630002 0.60433155 2.141
-0.4211255 0.60489613 2.1430001
-0.41594058 0.6054607 2.1450002
-0.4109365 0.60630739 2.148
-0.40629429 0.60771877 2.1530001
-0.40143996 0.6088478 2.1570001
-0.39693186 0.6105414 2.1630001
-0.39239255 0.61223507 2.1690001
-0.38782203 0.61392868 2.1750002
-0.38286889 0.61505771 2.1790001
-0.37772182 0.61590451 2.1820002
-0.37238863 0.61646897 2.184
-0.36687717 0.61675131 2.1850002
-0.3615258 0.61731577 2.187
-0.3558386 0.61731577 2.187
-0.34999132 0.61703354 2.1860001
-0.34509429 0.61844492 2.1910002
-0.33908686 0.61788034 2.1890001
-0.33415598 0.61929166 2.194
-0.32889971 0.62013847 2.197
-0.3236278 0.62098527 2.2
-0.31978539 0.62465471 2.2130001
-0.31999052 0.6365099 2.2550001
-0.31900209 0.64638925 2.2900002
-0.32439327 0.66981733 2.3730001
-0.33109611 0.69691485 2.4690001
-0.33822021 0.72598821 2.572
-0.34455076 0.75449711 2.6730001
-0.35288206 0.78865129 2.7940001
-0.36033663 0.82224095 2.9130001
-0.36305496 0.84623355 2.9980001
-0.36059123 0.85893553 3.0430002
-0.3580094 0.87191981 3.0890002
-0.35530159 0.88518631 3.1360002
-0.35068887 0.8942188 3.1680002
-0.3475312 0.90748531 3.2150002
-0.34655547 0.92724389 3.2850001
-0.34007093 0.93288922 3.3050001
-0.33639091 0.94672024 3.3540001
-0.32620358 0.94248629 3.3390002
-0.32141957 0.95405918 3.3800001
-0.31420243 0.95885772 3.3970001
-0.30815542 0.96760798 3.4280002
-0.29819354 0.96422076 3.4160001
-0.28939506 0.96450299 3.4170001
-0.28018099 0.96337396 3.4130001
-0.27122614 0.96309173 3.4120002
-0.26227653 0.96280944 3.4110003
-0.25310922 0.96168035 3.4070001
-0.24188368 0.95236558 3.3740001
-0.23352431 0.95405918 3.3800001
-0.22480126 0.95434141 3.381
-0.21600915 0.95434141 3.381
-0.20746219 0.95547056 3.3850002
-0.19865966 0.95547056 3.3850002
-0.18985714 0.95547056 3.3850002
-0.18094762 0.95490599 3.3830001
-0.17204852 0.95434141 3.381
-0.16315983 0.95377696 3.3790002
-0.15423585 0.95293015 3.3760002
-0.14537056 0.95236558 3.3740001
-0.13497722 0.94107497 3.3340001
-0.1263831 0.94163948 3.3360002
-0.11763743 0.94107497 3.3340001
-0.10886947 0.94022816 3.3310001
-0.10011712 0.93938136 3.3280001
-0.091380365 0.93853456 3.325
-0.082659222 0.93768781 3.3220003
-0.073975958 0.93712324 3.3200002
-0.064653605 0.92724389 3.2850001
-0.05609405 0.92696166 3.2840002
-0.047539689 0.92667943 3.2830002
-0.038895484 0.92413902 3.2740002
-0.030372333 0.92385674 3.2730002
-0.021674037 0.91595328 3.2450001
-0.013231494 0.91567105 3.2440002
-0.0047941534 0.91538876 3.2430003
0.0036368649 0.91482425 3.2410002
0.012050036 0.91369516 3.2370002
0.02047402 0.91397744 3.2380002
0.028813967 0.91143703 3.2290001
0.037279967 0.91313064 3.2350001
0.045692425 0.91313064 3.2350001
0.054121606 0.91341287 3.2360001
0.062555999 0.91369516 3.2370002
0.071017504 0.91425967 3.2390001
0.079391316 0.91369516 3.2370002
0.087890357 0.91454196 3.2400002
0.096821174 0.91934049 3.2570002
0.10558179 0.9218809 3.2660003
0.11414473 0.92244542 3.2680001
0.12264299 0.92244542 3.2680001
0.13102087 0.92159861 3.2650001
0.139725 0.92300993 3.2700002
0.1491804 0.92893749 3.2910001
0.15783435 0.92950207 3.2930002
0.16659975 0.9306311 3.2970002
0.17533283 0.9314779 3.3000002
0.18402578 0.93204242 3.302
0.19482909 0.94276857 3.3400002
0.20375833 0.9438976 3.3440001
0.21296251 0.94615579 3.3520002
0.22200987 0.94756705 3.3570001
0.23087706 0.94813162 3.3590002
0.24061066 0.95208335 3.3730001
0.24952984 0.95264786 3.3750002
0.25853598 0.95349467 3.3780003
0.26716202 0.95293015 3.3760002
0.27651331 0.95490599 3.3830001
0.28649133 0.95885772 3.3970001
0.2951512 0.9582932 3.3950002
0.30039823 0.94700259 3.3550003
0.30829352 0.94446218 3.3460002
0.31642619 0.94276857 3.3400002
0.32365161 0.93853456 3.325
0.33209822 0.93797004 3.3230002
0.34073952 0.93797004 3.3230002
0.34990653 0.93938136 3.3280001
0.35802212 0.93797004 3.3230002
0.36247045 0.92724389 3.2850001
0.37101293 0.92724389 3.2850001
0.37978652 0.92780846 3.2870002
0.38833421 0.92780846 3.2870002
0.39289737 0.91849369 3.2540002
0.40135923 0.91849369 3.2540002
0.40566495 0.90917891 3.2210002
0.41378388 0.90861434 3.2190001
0.4180893 0.89986414 3.1880002
0.4263795 0.89986414 3.1880002
0.42921591 0.88857353 3.1480002
0.4375411 0.88885576 3.1490002
0.44105887 0.87954098 3.1160002
0.44916186 0.87954098 3.1160002
0.4528625 0.87107301 3.0860002
0.46073809 0.87079066 3.085
0.4684566 0.8702262 3.0830002
0.47601011 0.8693794 3.0800002
0.48339096 0.86825031 3.0760002
0.49202892 0.8693794 3.0800002
0.50036299 0.86994398 3.0820003
0.50870752 0.87050843 3.0840001
0.51722997 0.87135524 3.0870001
0.52542764 0.87163746 3.0880001
0.53898597 0.88067001 3.1200001
0.54727471 0.88095224 3.1210001
0.56090724 0.88970256 3.1520002
0.57108992 0.89280742 3.1630001
0.58535928 0.90212226 3.1960001
0.59422755 0.90296906 3.1990001
0.60311145 0.90381587 3.2020001
0.6175487 0.91284835 3.2340002
0.6261521 0.91313064 3.2350001
0.63476068 0.91341287 3.2360001
0.6425795 0.91256607 3.233
0.65199351 0.91397744 3.2380002
0.6604138 0.91397744 3.2380002
0.66883403 0.91397744 3.2380002
0.67683601 0.91341287 3.2360001
0.68376875 0.91143703 3.2290001
0.69066507 0.90946114 3.2220001
0.6957894 0.90522718 3.2070003
0.70347035 0.90438038 3.2040002
0.71135783 0.90381587 3.2020001
0.7167626 0.90014637 3.1890001
0.72482806 0.89986414 3.1880002
0.73265839 0.89929956 3.1860001
0.74140853 0.89986414 3.1880002
0.75063944 0.90099317 3.1920002
0.75965333 0.90183997 3.1950002
0.76892322 0.90296906 3.1990001
0.77748507 0.90325129 3.2
0.78285974 0.89986414 3.1880002
0.79065359 0.89929956 3.1860001
0.79843712 0.89873511 3.1840003
0.8064636 0.89845276 3.1830001
0.81422895 0.8978883 3.1810002
0.82172525 0.8970415 3.1780002
0.82946718 0.89647692 3.1760001
0.8313958 0.88970256 3.1520002
0.83905959 0.88913798 3.1500001
0.84698212 0.88885576 3.1490002
0.85489941 0.88857353 3.1480002
0.86144054 0.88687992 3.1420002
0.86905766 0.88631535 3.1400001
0.87694365 0.88603312 3.1390002
0.88482451 0.88575083 3.1380002
0.8932693 0.88603312 3.1390002
0.90171921 0.88631535 3.1400001
0.91133356 0.88772672 3.1450002
0.92038918 0.88857353 3.1480002
0.93506467 0.89478332 3.1700001
0.94241542 0.89393651 3.1670001
0.95095128 0.8942188 3.1680002
0.96978652 0.90409809 3.2030001
0.97933733 0.90522718 3.2070003
0.98952484 0.90692073 3.2130001
0.99943292 0.90833211 3.2180002
1.018136 0.91764688 3.2510002
1.0272217 0.91821146 3.2530003
1.036636 0.9190582 3.256
1.046708 0.92046952 3.2610002
1.0558352 0.9210341 3.2630002
1.068887 0.92498583 3.2770002
1.0767511 0.92442125 3.2750001
1.0846049 0.92385674 3.2730002
1.0834306 0.91567105 3.2440002
1.0911934 0.91510648 3.2420001
1.0986065 0.91425967 3.2390001
1.1070293 0.91425967 3.2390001
1.1157967 0.91454196 3.2400002
1.124916 0.91510648 3.2420001
1.1368425 0.91792911 3.2520001
1.1586822 0.92865527 3.2900002
1.1683019 0.92950207 3.2930002
1.1797243 0.93176019 3.3010001
1.1893884 0.932607 3.3040001
1.2106707 0.94248629 3.3390002
1.2215447 0.94417989 3.3450003
1.2313466 0.94502664 3.348
1.2467198 0.95010746 3.3660002
1.2577109 0.95180106 3.3720002
1.265353 0.95095426 3.3690002
1.2741138 0.95095426 3.3690002
1.2828747 0.95095426 3.3690002
1.2939359 0.95264786 3.3750002
1.3023264 0.95236558 3.3740001
1.3111004 0.95236558 3.3740001
1.3202655 0.95264786 3.3750002
1.3282545 0.95208335 3.3730001
1.3322691 0.94869614 3.3610001
1.3402113 0.94813162 3.3590002
1.3533636 0.95123655 3.3700001
1.3609146 0.95038974 3.3670001
1.3684499 0.94954294 3.3640001
1.3853856 0.95518821 3.3840001
1.3991296 0.95857543 3.3960001
1.4013271 0.95405918 3.3800001
1.4176263 0.95914 3.3980002
1.4298209 0.96139812 3.4060001
1.438678 0.96139812 3.4060001
1.4471102 0.96111584 3.4050002
1.438861 0.94982523 3.3650002
1.4514831 0.95236558 3.3740001
1.4386172 0.93825227 3.3240001
1.4381177 0.93232471 3.3030002
1.431815 0.92272764 3.2690001
1.4381131 0.92131633 3.2640002
1.4497032 0.92329222 3.2710001
1.4582094 0.92329222 3.2710001
1.4676123 0.92385674 3.2730002
1.4765745 0.92413902 3.2740002
1.4882636 0.92611486 3.2810001
1.5118504 0.93542963 3.3140001
1.5131273 0.93091339 3.2980001
1.5378528 0.94079268 3.3330002
1.5474482 0.94135725 3.3350003
1.5556539 0.94107497 3.3340001
1.5516554 0.9334538 3.3070002
1.5564808 0.93119568 3.2990003
1.543237 0.91821146 3.2530003
1.5450181 0.91425967 3.2390001
1.5438489 0.90861434 3.2190001
1.5425756 0.90296906 3.1990001
1.54944 0.90212226 3.1960001
1.5587258 0.90268677 3.1980002
1.5494019 0.8925252 3.1620002
1.557132 0.89224297 3.1610003
1.5648566 0.89196062 3.1600001
1.5725763 0.89167839 3.1590002
-1.6673547 0.87995255 3.0890002
-1.675437 0.88849854 3.1190002
-1.6662571 0.88792878 3.1170001
-1.6624072 0.89020771 3.1250002
-1.6532221 0.88963795 3.1230001
-1.6435206 0.8887834 3.1200001
-1.6343586 0.88821363 3.118
-1.5949564 0.87112164 3.0580001
-1.5486008 0.85004157 2.9840002
-1.4969497 0.8258279 2.8990002
-1.409777 0.78167361 2.7440002
-0.66378641 0.39397031 1.383
-0.65971267 0.39368546 1.3820001
-0.65611887 0.39368546 1.3820001
-0.6529972 0.39397031 1.383
-0.64940077 0.39397031 1.383
-0.64580429 0.39397031 1.383
-0.6417436 0.39368546 1.3820001
-0.63768798 0.39340058 1.381
-0.63363761 0.39311573 1.3800001
-0.62959242 0.39283085 1.3790001
-0.62555242 0.39254597 1.378
-0.62151766 0.39226112 1.3770001
-0.61703938 0.39169142 1.3750001
-0.61301756 0.39140654 1.3740001
-0.60900092 0.39112166 1.373
-0.60498965 0.39083681 1.3720001
-0.60054511 0.39026707 1.3700001
-0.59654671 0.38998219 1.3690001
-0.5925535 0.38969731 1.368
-0.58770442 0.3888427 1.365
-0.58329892 0.38827297 1.363
-0.57847846 0.38741839 1.36
-0.57325083 0.38627893 1.3560001
-0.56804401 0.38513947 1.3520001
-0.56285805 0.384 1.348
-0.55810773 0.38314539 1.345
-0.55296075 0.38200593 1.3410001
-0.5482443 0.38115132 1.3380001
-0.54354346 0.38029674 1.335
-0.53966737 0.38001189 1.3340001
-0.53579634 0.37972701 1.3330001
-0.53272933 0.38001189 1.3340001
-0.52965707 0.38029674 1.335
-0.52657962 0.38058162 1.3360001
-0.52349693 0.38086644 1.337
-0.52079803 0.3814362 1.3390001
-0.5180887 0.38200593 1.3410001
-0.515369 0.38257566 1.3430001
-0.51263887 0.38314539 1.345
-0.50989836 0.38371515 1.3470001
-0.50714743 0.38428488 1.3490001
-0.50401276 0.3845697 1.35
-0.50124365 0.38513947 1.3520001
-0.49846411 0.3857092 1.3540001
-0.49567419 0.38627893 1.3560001
-0.49287385 0.38684866 1.358
-0.48970282 0.38713354 1.3590001
-0.48652652 0.38741839 1.36
-0.48298988 0.38741839 1.36
-0.47980586 0.38770327 1.3610001
-0.47591665 0.38741839 1.36
-0.47238004 0.38741839 1.36
-0.46918821 0.38770327 1.3610001
-0.46564898 0.38770327 1.3610001
-0.46244931 0.38798815 1.3620001
-0.45958138 0.38855785 1.3640001
-0.45670301 0.38912758 1.3660001
-0.45381424 0.38969731 1.368
-0.45091516 0.39026707 1.3700001
-0.4483321 0.39112166 1.373
-0.44573346 0.39197624 1.376
-0.44311929 0.39283085 1.3790001
-0.44048944 0.39368546 1.3820001
-0.43721172 0.39397031 1.383
-0.43424243 0.39454007 1.3850001
-0.43126264 0.3951098 1.3870001
-0.42765585 0.3951098 1.3870001
-0.42496622 0.39596438 1.3900001
-0.42135155 0.39596438 1.3900001
-0.41773695 0.39596438 1.3900001
-0.41442022 0.39624923 1.391
-0.41109833 0.39653412 1.3920001
-0.61818498 0.61246288 2.1500001
-0.61287898 0.61274773 2.151
-0.60785007 0.61331749 2.1530001
-0.60197157 0.61303264 2.1520002
-0.59665251 0.61331749 2.1530001
-0.59077924 0.61303264 2.1520002
-0.58491105 0.61274773 2.151
-0.57904822 0.61246288 2.1500001
-0.57292378 0.61189312 2.148
-0.56680977 0.61132348 2.1460001
-0.5607062 0.61075372 2.1440001
-0.55461299 0.61018401 2.1420002
-0.54853016 0.60961425 2.1400001
-0.54220402 0.60875964 2.1370001
-0.53614455 0.60818988 2.135
-0.53034413 0.60790503 2.1340001
-0.52454889 0.60762018 2.1330001
-0.51900208 0.60762018 2.1330001
-0.51393676 0.60818988 2.135
-0.50886106 0.60875964 2.1370001
-0.50424594 0.6098991 2.141
-0.49961007 0.61103863 2.1450002
-0.49495336 0.61217803 2.1490002
-0.49050358 0.61360234 2.154
-0.48557755 0.61445695 2.1570001
-0.48019087 0.6147418 2.158
-0.47457913 0.6147418 2.158
-0.46875006 0.61445695 2.1570001
-0.4624967 0.61360234 2.154
-0.45625898 0.61274773 2.151
-0.44961789 0.61132348 2.1460001
-0.44341657 0.61046886 2.1430001
-0.43702656 0.6093294 2.1390002
-0.43106076 0.60875964 2.1370001
-0.42550355 0.60875964 2.1370001
-0.42033947 0.6093294 2.1390002
-0.41516489 0.6098991 2.141
-0.41036263 0.61103863 2.1450002
-0.40553945 0.61217803 2.1490002
-0.40069553 0.61331749 2.1530001
-0.3960143 0.6147418 2.158
-0.39148796 0.61645103 2.164
-0.38675216 0.6178754 2.1690001
-0.38181463 0.6190148 2.1730001
-0.37651005 0.61958456 2.1750002
-0.37136561 0.62043917 2.1780002
-0.36603764 0.62100887 2.1800001
-0.36053395 0.62129372 2.181
-0.35486233 0.62129372 2.181
-0.34919077 0.62129372 2.181
-0.34367672 0.62157863 2.1820002
-0.33846724 0.62243325 2.1850002
-0.33308986 0.62300295 2.187
-0.32800153 0.62414247 2.1910002
-0.32406911 0.62756079 2.2030001
-0.31949639 0.62983978 2.2110002
-0.31970668 0.6418041 2.253
-0.32401696 0.66259944 2.3260002
-0.31500399 0.66915137 2.3490002
-0.35524949 0.78509194 2.756
-0.36450166 0.8221246 2.8860002
-0.3708511 0.85402966 2.9980001
-0.37032089 0.87112164 3.0580001
-0.3660422 0.87995255 3.0890002
-0.36345661 0.89334124 3.1360002
-0.35892713 0.902457 3.1680002
-0.35511675 0.91385162 3.2080002
-0.34731501 0.91527593 3.2130001
-0.345817 0.93379229 3.2780001
-0.33749855 0.93436199 3.2800002
-0.33388355 0.94832051 3.3290002
-0.32600817 0.95059937 3.3370001
-0.32141957 0.96284866 3.3800001
-0.31105763 0.95800591 3.3630002
-0.30500913 0.9665519 3.3930001
-0.29583663 0.96541244 3.3890002
-0.2868543 0.96484268 3.3870001
-0.27771822 0.96370327 3.3830001
-0.26836443 0.9617092 3.3760002
-0.25927776 0.96056974 3.3720002
-0.25028616 0.95971513 3.3690002
-0.24159692 0.95999998 3.3700001
-0.23304069 0.96085459 3.3730001
-0.22426936 0.96085459 3.3730001
-0.21556193 0.96113944 3.3740001
-0.20727833 0.96341842 3.3820002
-0.19854228 0.96370327 3.3830001
-0.18974496 0.96370327 3.3830001
-0.18089414 0.96341842 3.3820002
-0.17199764 0.96284866 3.3800001
-0.16069722 0.9480356 3.3280001
-0.15204293 0.9480356 3.3280001
-0.14334553 0.94775075 3.3270001
-0.13481529 0.94860536 3.3300002
-0.12482982 0.93863499 3.2950001
-0.11622605 0.93835014 3.2940001
-0.1076275 0.93806529 3.2930002
-0.098973952 0.93721068 3.2900002
-0.090336025 0.93635607 3.2870002
-0.081763461 0.93607122 3.2860003
-0.073173814 0.93550146 3.2840002
-0.064633928 0.93550146 3.2840002
-0.05607697 0.93521661 3.2830002
-0.047525205 0.9349317 3.2820001
-0.038586602 0.9252463 3.2480001
-0.030093942 0.92382199 3.2430003
-0.02166068 0.92382199 3.2430003
-0.013223337 0.92353708 3.2420001
-0.0047911964 0.92325222 3.2410002
0.003645842 0.92553115 3.2490001
0.012046313 0.92182785 3.2360001
0.020455051 0.921543 3.2350001
0.028822891 0.92011869 3.2300003
0.037256919 0.92097324 3.233
0.045678303 0.92125815 3.2340002
0.054121606 0.92182785 3.2360001
0.062555999 0.92211276 3.2370002
0.071039431 0.92296737 3.2400002
0.079342261 0.921543 3.2350001
0.088839784 0.93293768 3.2750001
0.097267076 0.93208307 3.2720001
0.10564644 0.93094361 3.2680001
0.11512271 0.9389199 3.2960002
0.12376885 0.9394896 3.2980001
0.1324254 0.94005936 3.3000002
0.14113507 0.94091398 3.3030002
0.1494977 0.9394896 3.2980001
0.15797815 0.9389199 3.2960002
0.16670083 0.93977451 3.2990003
0.17538597 0.94034421 3.3010001
0.18408152 0.94091398 3.3030002
0.19512075 0.95287836 3.3450003
0.204063 0.95401782 3.3490002
0.21308957 0.95544213 3.3540001
0.22207601 0.95658165 3.3580003
0.2309458 0.95715129 3.3600001
0.240254 0.95943028 3.3680003
0.24908623 0.95971513 3.3690002
0.25800022 0.96028483 3.3710001
0.26668721 0.95999998 3.3700001
0.27626809 0.96284866 3.3800001
0.28379259 0.95857567 3.3650002
0.29245612 0.95829076 3.3640001
0.30066687 0.95658165 3.3580003
0.3080171 0.9523086 3.3430002
0.31595251 0.95002967 3.3350003
0.32374895 0.9474659 3.3260002
0.32900009 0.93778038 3.2920001
0.33745825 0.93749553 3.2910001
0.34570092 0.93664092 3.2880001
0.35403574 0.93607122 3.2860003
0.36236012 0.93550146 3.2840002
0.37089998 0.93550146 3.2840002
0.37943989 0.93550146 3.2840002
0.38821608 0.93607122 3.2860003
0.3930181 0.92724031 3.2550001
0.40148255 0.92724031 3.2550001
0.40541303 0.91698515 3.2190001
0.41365534 0.9167003 3.2180002
0.4190073 0.91014838 3.1950002
0.42731571 0.91014838 3.1950002
0.42921591 0.89675969 3.1480002
0.43740216 0.89675969 3.1480002
0.44105887 0.88764393 3.1160002
0.44930601 0.88792878 3.1170001
0.4528625 0.87909794 3.0860002
0.46073809 0.87881303 3.085
0.4684566 0.87824333 3.0830002
0.47585559 0.87710387 3.0790002
0.48276234 0.87510973 3.072
0.49170941 0.87681895 3.0780001
0.49987596 0.87710387 3.0790002
0.50837761 0.87795848 3.0820003
0.51689482 0.87881303 3.085
0.52525753 0.87938279 3.0870001
0.53881323 0.88849854 3.1190002
0.54709935 0.8887834 3.1200001
0.55912775 0.89505047 3.1420002
0.56729835 0.89505047 3.1420002
0.58480978 0.90957862 3.1930001
0.5938561 0.91071814 3.1970003
0.60254639 0.91128784 3.1990001
0.61735773 0.92097324 3.233
0.62595856 0.92125815 3.2340002
0.63436836 0.92125815 3.2340002
0.64238077 0.92068839 3.2320001
0.65018129 0.91983378 3.2290001
0.65959799 0.92125815 3.2340002
0.66800779 0.92125815 3.2340002
0.67599934 0.92068839 3.2320001
0.68228644 0.91783977 3.2220001
0.69002199 0.91698515 3.2190001
0.68884665 0.90445101 3.1750002
0.69666392 0.90388125 3.1730001
0.7062481 0.90559047 3.1790001
0.71406543 0.90502071 3.177
0.72232705 0.90502071 3.177
0.72966886 0.90388125 3.1730001
0.7383852 0.90445101 3.1750002
0.7466417 0.90445101 3.1750002
0.75513583 0.90473586 3.1760001
0.76820213 0.91043323 3.1960001
0.77627027 0.91014838 3.1950002
0.78261411 0.9078694 3.187
0.79065359 0.90758455 3.1860001
0.79843712 0.90701485 3.1840003
0.8064636 0.90672994 3.1830001
0.81422895 0.90616024 3.1810002
0.82172525 0.90530562 3.1780002
0.82920599 0.90445101 3.1750002
0.83165956 0.89818394 3.1530001
0.83905959 0.89732933 3.1500001
0.84671319 0.89675969 3.1480002
0.85462779 0.89647472 3.1470001
0.86144054 0.89505047 3.1420002
0.86905766 0.89448071 3.1400001
0.87694365 0.89419585 3.1390002
0.88482451 0.893911 3.1380002
0.8932693 0.89419585 3.1390002
0.90171921 0.89448071 3.1400001
0.91133356 0.89590508 3.1450002
0.92038918 0.89675969 3.1480002
0.93447477 0.902457 3.1680002
0.94241542 0.90217209 3.1670001
0.95095128 0.902457 3.1680002
0.96978652 0.91242725 3.2030001
0.97994804 0.91413647 3.2090001
0.98952484 0.91527593 3.2130001
0.99912238 0.91641545 3.2170002
1.0065485 0.91556084 3.2140002
1.0269059 0.9263857 3.2520001
1.036636 0.92752516 3.256
1.046066 0.92837977 3.2590001
1.0548645 0.92866468 3.2600002
1.0610588 0.92667067 3.2530003
1.0685316 0.92581606 3.2500002
1.0746634 0.92382199 3.2430003
1.0827627 0.92353708 3.2420001
1.0901836 0.92268246 3.2390001
1.0975889 0.92182785 3.2360001
1.1063458 0.92211276 3.2370002
1.1147635 0.92211276 3.2370002
1.1235281 0.92239761 3.2380002
1.1361433 0.92581606 3.2500002
1.1449471 0.92610091 3.2510002
1.1686567 0.93835014 3.2940001
1.1797243 0.94034421 3.3010001
1.1897484 0.94148362 3.3050001
1.2106707 0.95116913 3.3390002
1.2222751 0.95344806 3.3470001
1.2313466 0.95373291 3.348
1.2470902 0.95914537 3.3670001
1.2580839 0.96085459 3.3730001
1.265353 0.95971513 3.3690002
1.2744919 0.95999998 3.3700001
1.2832555 0.95999998 3.3700001
1.2916356 0.95971513 3.3690002
1.3007826 0.95999998 3.3700001
1.3091575 0.95971513 3.3690002
1.3202655 0.96142435 3.3750002
1.3278607 0.96056974 3.3720002
1.3374221 0.96113944 3.3740001
1.3453981 0.96056974 3.3720002
1.3545684 0.96085459 3.3730001
1.3617231 0.95971513 3.3690002
1.3692635 0.95886052 3.3660002
1.3800635 0.96028483 3.3710001
1.4020135 0.96940058 3.4030001
1.413765 0.9713946 3.4100001
1.4205467 0.96997035 3.4050002
1.4310803 0.97110981 3.4090002
1.4395229 0.97082496 3.4080002
1.4479601 0.97054005 3.4070001
1.4380057 0.95800591 3.3630002
1.4519134 0.96142435 3.3750002
1.4377517 0.94632643 3.3220003
1.4385531 0.94119883 3.3040001
1.4313772 0.93094361 3.2680001
1.4381131 0.92980415 3.2640002
1.4492601 0.93151337 3.2700002
1.4582094 0.93179822 3.2710001
1.4676123 0.93236798 3.2730002
1.4770255 0.93293768 3.2750001
1.48781 0.93436199 3.2800002
1.5113941 0.9437626 3.3130002
1.5291854 0.94945991 3.3330002
1.5383141 0.94974476 3.3340001
1.5479121 0.95031452 3.3360002
1.5556539 0.94974476 3.3340001
1.5488402 0.94034421 3.3010001
1.5564808 0.93977451 3.2990003
1.5451345 0.92781007 3.2570002
1.5464491 0.92353708 3.2420001
1.54241 0.91613054 3.2160001
1.5425756 0.91128784 3.1990001
1.54944 0.91043323 3.1960001
1.5582385 0.91071814 3.1970003
1.5690022 0.9121424 3.2020001
1.5773288 0.9121424 3.2020001
1.5856555 0.9121424 3.2020001
1.5914931 0.91071814 3.1970003
-1.5631787 0.83250421 2.8960001
-1.5567222 0.83307916 2.8980002
-1.570569 0.84457785 2.9380002
-1.5623966 0.84429032 2.937
-1.5537006 0.84371543 2.9350002
-1.5455415 0.84342802 2.9340003
-1.5195657 0.83336663 2.8990002
-1.4843839 0.81813091 2.8460002
-1.4302759 0.7922588 2.756
-1.3802506 0.76839906 2.6730001
-1.0070382 0.57809603 2.0110002
-0.65346938 0.39785424 1.3840001
-0.64987034 0.39785424 1.3840001
-0.64673829 0.39814171 1.3850001
-0.6426723 0.39785424 1.3840001
-0.63907325 0.39785424 1.3840001
-0.63455594 0.39727929 1.3820001
-0.63050556 0.39699182 1.381
-0.62646037 0.39670438 1.3800001
-0.62242037 0.3964169 1.3790001
-0.61793685 0.39584196 1.3770001
-0.61390984 0.39555448 1.376
-0.6094445 0.39497957 1.3740001
-0.60543054 0.39469209 1.373
-0.60098344 0.39411715 1.3710001
-0.59698248 0.3938297 1.3700001
-0.5925535 0.39325476 1.368
-0.58770442 0.39239234 1.365
-0.58329892 0.39181742 1.363
-0.57847846 0.390955 1.36
-0.57325083 0.38980517 1.3560001
-0.56804401 0.3886553 1.3520001
-0.56285805 0.38750541 1.348
-0.55810773 0.38664299 1.345
-0.5533731 0.3857806 1.342
-0.54865408 0.38491821 1.3390001
-0.54395062 0.38405582 1.3360001
-0.54007185 0.38376835 1.335
-0.53660023 0.38376835 1.335
-0.53312862 0.38376835 1.335
-0.53005379 0.38405582 1.3360001
-0.52697372 0.38434327 1.337
-0.52428001 0.38491821 1.3390001
-0.52118695 0.38520569 1.34
-0.51886141 0.38606808 1.3430001
-0.51613647 0.38664299 1.345
-0.51340121 0.38721797 1.3470001
-0.51027691 0.38750541 1.348
-0.50752336 0.38808033 1.35
-0.50475949 0.3886553 1.3520001
-0.50235587 0.38951766 1.355
-0.49956855 0.39009264 1.3570001
-0.49640527 0.39038008 1.358
-0.49359971 0.390955 1.36
-0.49078384 0.39152998 1.3620001
-0.48759973 0.39181742 1.363
-0.48441046 0.39210489 1.3640001
-0.48086348 0.39210489 1.3640001
-0.47731644 0.39210489 1.3640001
-0.47376943 0.39210489 1.3640001
-0.47056714 0.39239234 1.365
-0.4670175 0.39239234 1.365
-0.46380743 0.39267981 1.3660001
-0.46059218 0.39296731 1.3670001
-0.45770603 0.39354223 1.3690001
-0.45480946 0.39411715 1.3710001
-0.45190254 0.39469209 1.373
-0.4493117 0.39555448 1.376
-0.44702923 0.39670438 1.3800001
-0.44376194 0.39699182 1.381
-0.44112691 0.39785424 1.3840001
-0.43784401 0.39814171 1.3850001
-0.43518299 0.39900407 1.388
-0.4318845 0.39929155 1.3890001
-0.42858085 0.39957905 1.3900001
-0.42496622 0.39957905 1.3900001
-0.42165467 0.39986649 1.391
-0.41803747 0.39986649 1.391
-0.62965965 0.61834133 2.151
-0.62377596 0.61805391 2.1500001
-0.61847252 0.61834133 2.151
-0.61287898 0.61834133 2.151
-0.60756773 0.61862886 2.1520002
-0.60169178 0.61834133 2.151
-0.59609824 0.61834133 2.151
-0.59023017 0.61805391 2.1500001
-0.58463919 0.61805391 2.1500001
-0.57850957 0.61747891 2.148
-0.57265705 0.61719149 2.1470001
-0.56654567 0.61661661 2.1450002
-0.56044465 0.61604166 2.1430001
-0.55435401 0.61546665 2.141
-0.5480175 0.61460423 2.138
-0.54195035 0.61402935 2.1360002
-0.53589344 0.6134544 2.1340001
-0.52984709 0.61287951 2.1320002
-0.52430296 0.61287951 2.1320002
-0.51851547 0.61259198 2.131
-0.51321465 0.61287951 2.1320002
-0.50838476 0.61374187 2.135
-0.50353938 0.61460423 2.138
-0.49914423 0.61604166 2.1430001
-0.49426243 0.61690402 2.1460001
-0.48982042 0.61834133 2.151
-0.48490217 0.61920375 2.154
-0.47930083 0.61920375 2.154
-0.47369945 0.61920375 2.154
-0.46788079 0.61891627 2.1530001
-0.46185255 0.61834133 2.151
-0.45541054 0.61719149 2.1470001
-0.44898933 0.61604166 2.1430001
-0.44279581 0.61517924 2.1400001
-0.43661791 0.61431682 2.1370001
-0.4306573 0.61374187 2.135
-0.42510533 0.61374187 2.135
-0.41974992 0.61402935 2.1360002
-0.41458315 0.61460423 2.138
-0.40959734 0.61546665 2.141
-0.40497333 0.61690402 2.1460001
-0.40013719 0.61805391 2.1500001
-0.39546382 0.61949128 2.1550002
-0.39058346 0.62064111 2.1590002
-0.38586059 0.62207842 2.164
-0.38076037 0.62294084 2.1670001
-0.37564451 0.6238032 2.1700001
-0.37034255 0.6243782 2.1720002
-0.36503017 0.62495309 2.174
-0.35954213 0.62524056 2.1750002
-0.35404882 0.62552804 2.1760001
-0.34839025 0.62552804 2.1760001
-0.34304672 0.62610298 2.1780002
-0.33784759 0.62696534 2.181
-0.33263293 0.62782776 2.184
-0.32755241 0.62897766 2.1880002
-0.32215679 0.62955254 2.1900001
-0.31920737 0.63501441 2.2090001
-0.32041621 0.6491003 2.2580001
-0.32415625 0.66893554 2.3270001
-0.31500399 0.67525983 2.3490002
-0.31468156 0.68790835 2.3930001
-0.36685055 0.81813091 2.8460002
-0.37498456 0.85348928 2.9690001
-0.37827307 0.87907386 3.0580001
-0.37782905 0.89689678 3.1200001
-0.37350759 0.90609574 3.1520002
-0.36971509 0.91701949 3.1900001
-0.36153296 0.91730696 3.1910002
-0.35899118 0.93225527 3.2430003
-0.35055792 0.93225527 3.2430003
-0.34602803 0.94289154 3.2800002
-0.33760145 0.94317901 3.2810001
-0.33288059 0.95410275 3.3190002
-0.32385889 0.95295286 3.3150001
-0.31847164 0.96272677 3.3490002
-0.31050265 0.96502644 3.3570001
-0.30464956 0.9742254 3.3890002
-0.29574934 0.97393799 3.3880002
-0.2867696 0.97336304 3.3860002
-0.27763611 0.97221315 3.3820002
-0.26804647 0.96933848 3.3720002
-0.25904709 0.96847612 3.3690002
-0.2500633 0.9676137 3.3660002
-0.24131016 0.9676137 3.3660002
-0.23262614 0.96790111 3.3670001
-0.22387041 0.96790111 3.3670001
-0.21511471 0.96790111 3.3670001
-0.20592996 0.96588886 3.3600001
-0.19707508 0.96531397 3.3580003
-0.18828668 0.96502644 3.3570001
-0.17955695 0.96502644 3.3570001
-0.17072548 0.96445155 3.3550003
-0.16050407 0.95554006 3.3240001
-0.15190586 0.95582747 3.325
-0.14321628 0.95554006 3.3240001
-0.13461286 0.95582747 3.325
-0.12471617 0.9463411 3.2920001
-0.1161202 0.94605362 3.2910001
-0.1075948 0.9463411 3.2920001
-0.098943874 0.94547874 3.2890003
-0.090308547 0.94461638 3.2860003
-0.081738569 0.94432884 3.2850001
-0.072416231 0.93426752 3.2500002
-0.063945077 0.93398005 3.2490001
-0.055479132 0.93369257 3.2480001
-0.047003906 0.93311763 3.2460001
-0.038574722 0.9334051 3.2470002
-0.030047543 0.9308179 3.2380002
-0.021633962 0.93110538 3.2390001
-0.013219258 0.93168032 3.2410002
-0.00478824 0.93110538 3.2390001
0.0036424755 0.93311763 3.2460001
0.012079817 0.93283015 3.2450001
0.020524602 0.93311763 3.2460001
0.028849659 0.92938054 3.233
0.037279967 0.92995548 3.2350001
0.045706552 0.93024296 3.2360001
0.054171782 0.93110538 3.2390001
0.062633298 0.93168032 3.2410002
0.071127132 0.93254274 3.2440002
0.080028996 0.93800461 3.2630002
0.088866919 0.9417417 3.2760003
0.097326532 0.9411667 3.2740002
0.10677791 0.9495033 3.3030002
0.11515764 0.94777846 3.2970002
0.12380639 0.94835341 3.2990003
0.13246553 0.9489283 3.3010001
0.1411778 0.94979072 3.3040001
0.14963369 0.9489283 3.3010001
0.16042258 0.96215177 3.3470001
0.16927788 0.96301419 3.3500001
0.17809565 0.96358919 3.3520002
0.18697956 0.96445155 3.3550003
0.19547074 0.96330166 3.3510001
0.20430672 0.96387661 3.3530002
0.21321663 0.96473902 3.3560002
0.22207601 0.96531397 3.3580003
0.23087706 0.96560144 3.3590002
0.24003999 0.96732622 3.3650002
0.24871655 0.96703869 3.3640001
0.25754103 0.96732622 3.3650002
0.26613328 0.96675128 3.3630002
0.2742247 0.96445155 3.3550003
0.28328657 0.96560144 3.3590002
0.29193452 0.96531397 3.3580003
0.30057731 0.96502644 3.3570001
0.30599007 0.95467764 3.3210001
0.3154788 0.95726484 3.3300002
0.32365161 0.95582747 3.325
0.3287003 0.94547874 3.2890003
0.33715063 0.94519126 3.2880001
0.34538549 0.94432884 3.2850001
0.3537125 0.94375396 3.2830002
0.36202911 0.94317901 3.2810001
0.37056115 0.94317901 3.2810001
0.37897772 0.94289154 3.2800002
0.38514435 0.93714219 3.2600002
0.39338031 0.93656725 3.2580001
0.40172926 0.93627977 3.2570002
0.40453145 0.92334378 3.2120001
0.41288409 0.92334378 3.2120001
0.41769585 0.91558218 3.1850002
0.42597827 0.91558218 3.1850002
0.42921591 0.90494591 3.1480002
0.43740216 0.90494591 3.1480002
0.44105887 0.89574695 3.1160002
0.44945014 0.89632183 3.118
0.45271572 0.88683546 3.085
0.46073809 0.88683546 3.085
0.4684566 0.88626057 3.0830002
0.47585559 0.88511068 3.0790002
0.4819766 0.88166106 3.0670002
0.48819494 0.87849897 3.0560002
0.49646658 0.87907386 3.0580001
0.5047487 0.8796488 3.0600002
0.5133763 0.88079864 3.0640001
0.52168435 0.88137364 3.0660002
0.53466713 0.88971013 3.095
0.54341698 0.89086002 3.0990002
0.55912775 0.90322107 3.1420002
0.56729835 0.90322107 3.1420002
0.58389407 0.9164446 3.1880002
0.59292728 0.91759443 3.1920002
0.60160464 0.91816938 3.1940002
0.61735773 0.92938054 3.233
0.62576497 0.92938054 3.233
0.6341722 0.92938054 3.233
0.64218199 0.92880565 3.2310002
0.64997995 0.92794323 3.2280002
0.65796626 0.92736828 3.2260001
0.66635531 0.92736828 3.2260001
0.67453527 0.92708081 3.2250001
0.68228644 0.92621845 3.2220001
0.69002199 0.92535603 3.2190001
0.68971449 0.91385734 3.1790001
0.69732261 0.91299498 3.1760001
0.70580381 0.91328239 3.177
0.71384072 0.91299498 3.1760001
0.72187239 0.91270751 3.1750002
0.73058867 0.91328239 3.177
0.73908293 0.91356993 3.1780002
0.74734718 0.91356993 3.1780002
0.75489807 0.91270751 3.1750002
0.7679618 0.91845685 3.1950002
0.77529842 0.91730696 3.1910002
0.78556091 0.91960669 3.1990001
0.79090178 0.91615707 3.187
0.79893863 0.91586959 3.1860001
0.80697036 0.91558218 3.1850002
0.8147409 0.91500723 3.1830001
0.82250094 0.91443235 3.1810002
0.82998949 0.91356993 3.1780002
0.8313958 0.90609574 3.1520002
0.83879328 0.90523338 3.1490002
0.84644413 0.90465838 3.1470001
0.85435623 0.90437096 3.1460001
0.86171472 0.90350854 3.1430001
0.8693344 0.9029336 3.141
0.87722296 0.90264612 3.1400001
0.8851065 0.90235871 3.1390002
0.89355385 0.90264612 3.1400001
0.90200639 0.9029336 3.141
0.91075402 0.90350854 3.1430001
0.92097384 0.9055208 3.1500001
0.93447477 0.91069525 3.1680002
0.94241542 0.91040772 3.1670001
0.95095128 0.91069525 3.1680002
0.96948379 0.92046911 3.2020001
0.98086417 0.92334378 3.2120001
0.98983288 0.92391872 3.2140002
0.99912238 0.92478114 3.2170002
1.0068617 0.9242062 3.2150002
1.0171168 0.92593098 3.2210002
1.0372728 0.93656725 3.2580001
1.0463871 0.93714219 3.2600002
1.0548645 0.93714219 3.2600002
1.0617111 0.93570483 3.2550001
1.0691892 0.93484241 3.2520001
1.0740006 0.93168032 3.2410002
1.0817608 0.93110538 3.2390001
1.0888374 0.92995548 3.2350001
1.0962322 0.92909312 3.2320001
1.1056622 0.92995548 3.2350001
1.1140747 0.92995548 3.2350001
1.1228341 0.93024296 3.2360001
1.1322979 0.93110538 3.2390001
1.1442426 0.93398005 3.2490001
1.158368 0.9385795 3.2650001
1.1797243 0.9489283 3.3010001
1.1922684 0.9520905 3.3120003
1.2106707 0.9598521 3.3390002
1.2230055 0.96272677 3.3490002
1.2317145 0.96272677 3.3490002
1.2452383 0.9664638 3.3620002
1.25883 0.9702009 3.3750002
1.2646017 0.96790111 3.3670001
1.2737356 0.96818864 3.3680003
1.2824939 0.96818864 3.3680003
1.2908688 0.96790111 3.3670001
1.2996246 0.96790111 3.3670001
1.3083802 0.96790111 3.3670001
1.3210478 0.97077578 3.3770001
1.3294358 0.97048837 3.3760002
1.338215 0.97048837 3.3760002
1.346595 0.9702009 3.3750002
1.3553716 0.9702009 3.3750002
1.3669776 0.97221315 3.3820002
1.3696703 0.96790111 3.3670001
1.3964393 0.98054969 3.4110003
1.4040736 0.97968733 3.4080002
1.4145942 0.98083717 3.4120002
1.4222153 0.97997475 3.4090002
1.4319199 0.98054969 3.4110003
1.4403676 0.98026222 3.4100001
1.4483852 0.97968733 3.4080002
1.4568199 0.9793998 3.4070001
1.4519134 0.9702009 3.3750002
1.4325581 0.95151556 3.3100002
1.4389884 0.95007819 3.3050001
1.4335672 0.94087929 3.2730002
1.4381131 0.93829209 3.2640002
1.444828 0.93714219 3.2600002
1.4586551 0.94059175 3.2720001
1.4680606 0.9411667 3.2740002
1.4774765 0.9417417 3.2760003
1.4873563 0.94260401 3.279
1.5118504 0.95266539 3.3140001
1.5296441 0.95841473 3.3340001
1.539237 0.95898968 3.3360002
1.54884 0.95956457 3.3380001
1.5556539 0.95841473 3.3340001
1.548371 0.94864088 3.3000002
1.5564808 0.94835341 3.2990003
1.5456089 0.93656725 3.2580001
1.5464491 0.93196774 3.2420001
1.5443286 0.92564356 3.2200003
1.5502909 0.9242062 3.2150002
1.5576817 0.92363119 3.2130001
1.5601881 0.92018163 3.2010002
1.5685122 0.92018163 3.2010002
1.5768362 0.92018163 3.2010002
1.5851603 0.92018163 3.2010002
1.5929865 0.91989416 3.2
-1.4805936 0.79565483 2.743
-1.4739978 0.79594493 2.7440002
-1.4791573 0.80261648 2.7670002
-1.4714297 0.80232638 2.766
-1.4637077 0.80203635 2.7650001
-1.439134 0.79246408 2.7320001
-1.4194494 0.78550249 2.7080002
-1.381635 0.76838851 2.6490002
-1.3347858 0.74605328 2.572
-1.2904025 0.72487837 2.4990001
-1.0384429 0.59840906 2.0630002
-1.0070382 0.58332556 2.0110002
-0.99608356 0.58303541 2.01
-0.65346938 0.40145326 1.3840001
-0.65080941 0.40203339 1.386
-0.64767218 0.40232348 1.3870001
-0.64406538 0.40232348 1.3870001
-0.64045852 0.40232348 1.3870001
-0.6359334 0.40174335 1.3850001
-0.63187522 0.40145326 1.3840001
-0.62782222 0.40116319 1.383
-0.62332308 0.40058306 1.381
-0.61883438 0.40000293 1.3790001
-0.61435604 0.39942279 1.3770001
-0.61033159 0.39913273 1.376
-0.6058715 0.3985526 1.3740001
-0.60142177 0.39797246 1.3720001
-0.59698248 0.39739233 1.3700001
-0.5925535 0.39681217 1.368
-0.58770442 0.39594197 1.365
-0.58329892 0.39536184 1.363
-0.57847846 0.39449164 1.36
-0.57325083 0.39333138 1.3560001
-0.56846416 0.39246118 1.353
-0.56327558 0.39130092 1.3490001
-0.5585227 0.39043072 1.3460001
-0.55378544 0.38956049 1.3430001
-0.5490638 0.38869029 1.34
-0.54476488 0.38811016 1.3380001
-0.54088092 0.38782009 1.337
-0.53700221 0.38753003 1.3360001
-0.53352797 0.38753003 1.3360001
-0.53084731 0.38811016 1.3380001
-0.52776206 0.38840026 1.3390001
-0.5250631 0.38898036 1.3410001
-0.52196485 0.38927042 1.342
-0.51924777 0.38985059 1.3440001
-0.516904 0.39072078 1.3470001
-0.51416349 0.39130092 1.3490001
-0.51141256 0.39188105 1.3510001
-0.5086512 0.39246118 1.353
-0.50625283 0.39333138 1.3560001
-0.5034681 0.39391151 1.358
-0.50067294 0.39449164 1.36
-0.49786747 0.3950718 1.3620001
-0.4950515 0.39565194 1.3640001
-0.49186483 0.39594197 1.365
-0.48903072 0.39652213 1.3670001
-0.4854759 0.39652213 1.3670001
-0.48227361 0.39681217 1.368
-0.47871619 0.39681217 1.368
-0.47515875 0.39681217 1.368
-0.47160137 0.39681217 1.368
-0.46804392 0.39681217 1.368
-0.46482605 0.39710227 1.3690001
-0.46160302 0.39739233 1.3700001
-0.45837468 0.3976824 1.3710001
-0.45547292 0.3982625 1.373
-0.45256084 0.39884266 1.3750001
-0.44996476 0.39971286 1.378
-0.44735315 0.40058306 1.381
-0.44472596 0.40145326 1.3840001
-0.44208312 0.40232348 1.3870001
-0.43879238 0.40261352 1.388
-0.43549654 0.40290359 1.3890001
-0.4318845 0.40290359 1.3890001
-0.42858085 0.40319368 1.3900001
-0.4252719 0.40348372 1.391
-0.42165467 0.40348372 1.391
-0.63995302 0.6230647 2.148
-0.6367299 0.62538528 2.1560001
-0.63053787 0.62480515 2.154
-0.62435627 0.62422502 2.1520002
-0.61876005 0.62422502 2.1520002
-0.61316395 0.62422502 2.1520002
-0.60756773 0.62422502 2.1520002
-0.60169178 0.62393492 2.151
-0.59582114 0.62364489 2.1500001
-0.58995563 0.62335485 2.1490002
-0.5840953 0.6230647 2.148
-0.57824028 0.62277466 2.1470001
-0.57239038 0.62248462 2.1460001
-0.5662815 0.62190449 2.1440001
-0.56018317 0.62132436 2.1420002
-0.55409509 0.62074423 2.1400001
-0.5480175 0.62016404 2.138
-0.54169655 0.61929387 2.135
-0.53564239 0.61871374 2.1330001
-0.52959853 0.6181336 2.131
-0.5238111 0.61784357 2.1300001
-0.51827216 0.61784357 2.1300001
-0.51297385 0.6181336 2.131
-0.5081467 0.61900377 2.1340001
-0.50330389 0.619874 2.1370001
-0.49867836 0.62103426 2.141
-0.49380177 0.62190449 2.1440001
-0.48913726 0.6230647 2.148
-0.48400173 0.62364489 2.1500001
-0.47863325 0.62393492 2.151
-0.47303972 0.62393492 2.151
-0.46722886 0.62364489 2.1500001
-0.4612084 0.6230647 2.148
-0.4547742 0.62190449 2.1440001
-0.4483608 0.62074423 2.1400001
-0.44217506 0.619874 2.1370001
-0.43600497 0.61900377 2.1340001
-0.43005222 0.6184237 2.1320002
-0.42450804 0.6184237 2.1320002
-0.41916037 0.61871374 2.1330001
-0.41400141 0.61929387 2.135
-0.4090234 0.62016404 2.138
-0.4044072 0.6216144 2.1430001
-0.39957887 0.62277466 2.1470001
-0.39472973 0.62393492 2.151
-0.38985983 0.62509525 2.1550002
-0.38496909 0.62625551 2.1590002
-0.38005754 0.62741578 2.1630001
-0.37477899 0.62799591 2.1650002
-0.36949 0.62857604 2.1670001
-0.36402276 0.62886614 2.1680002
-0.35871559 0.62944621 2.1700001
-0.35307258 0.62944621 2.1700001
-0.34774986 0.6300264 2.1720002
-0.34225917 0.63031644 2.1730001
-0.33707309 0.63118666 2.1760001
-0.33187142 0.63205683 2.1790001
-0.32695356 0.63350713 2.184
-0.32127416 0.63350713 2.184
-0.31906289 0.64046884 2.2080002
-0.32098383 0.6561324 2.2620001
-0.32931045 0.68571931 2.3640001
-0.33751664 0.71617639 2.4690001
-0.31513807 0.68165839 2.3500001
-0.36412588 0.80319655 2.7690001
-0.37548685 0.84496629 2.9130001
-0.38433078 0.88267511 3.0430002
-0.38594243 0.90501022 3.1200001
-0.38364181 0.91893351 3.1680002
-0.38026199 0.93082625 3.2090001
-0.37330794 0.9343071 3.2210002
-0.36753774 0.94097865 3.2440002
-0.35899118 0.94068855 3.2430003
-0.35444939 0.95113093 3.279
-0.3461335 0.95171112 3.2810001
-0.33770433 0.95200115 3.2820001
-0.3325797 0.96186346 3.3160002
-0.32385889 0.96157336 3.3150001
-0.31542861 0.96215355 3.3170002
-0.31022516 0.97288603 3.3540001
-0.30141339 0.97259593 3.3530002
-0.29286867 0.97317612 3.3550003
-0.28439823 0.97404635 3.3580003
-0.27583009 0.97462642 3.3600001
-0.26756951 0.97636682 3.3660002
-0.25873953 0.97607678 3.3650002
-0.24984041 0.97549665 3.3630002
-0.24102341 0.97520655 3.3620002
-0.2322807 0.97520655 3.3620002
-0.22353797 0.97520655 3.3620002
-0.21479528 0.97520655 3.3620002
-0.20580739 0.97404635 3.3580003
-0.19701639 0.97375619 3.3570001
-0.18823059 0.97346616 3.3560002
-0.17950347 0.97346616 3.3560002
-0.16879177 0.96215355 3.3170002
-0.16031094 0.96302372 3.3200002
-0.15181449 0.96389395 3.3230002
-0.14313012 0.96360391 3.3220003
-0.13295297 0.95258129 3.2840002
-0.12464041 0.95432174 3.2900002
-0.11604964 0.95403165 3.2890003
-0.10618941 0.94242895 3.2490001
-0.097770624 0.94271904 3.2500002
-0.089319162 0.94271904 3.2500002
-0.080842808 0.94242895 3.2490001
-0.072416231 0.94271904 3.2500002
-0.063393995 0.9343071 3.2210002
-0.055035025 0.93459713 3.2220001
-0.046685334 0.93517727 3.2240002
-0.038325239 0.9357574 3.2260001
-0.030001145 0.93778783 3.233
-0.021607244 0.93836802 3.2350001
-0.013207022 0.93923819 3.2380002
-0.0047867615 0.93923819 3.2380002
0.0036391092 0.94068855 3.2430003
0.012072372 0.94068855 3.2430003
0.020511959 0.94097865 3.2440002
0.028885355 0.93894815 3.2370002
0.037326064 0.93952823 3.2390001
0.045777176 0.94010842 3.2410002
0.054255407 0.94097865 3.2440002
0.062749252 0.94184881 3.2470002
0.071280614 0.94300908 3.2510002
0.079979941 0.94590974 3.2610002
0.088866919 0.95026082 3.2760003
0.09735626 0.94997066 3.2750001
0.10690722 0.95925283 3.3070002
0.11589112 0.96244359 3.3180001
0.12474459 0.96418399 3.3240001
0.133549 0.96534425 3.3280001
0.14245968 0.96708465 3.3340001
0.15131089 0.96824491 3.3380001
0.16032673 0.97027546 3.3450003
0.16917682 0.97114557 3.348
0.17804252 0.9720158 3.3510001
0.1868681 0.97259593 3.3530002
0.19558741 0.97259593 3.3530002
0.20436765 0.97288603 3.3540001
0.21321663 0.97346616 3.3560002
0.22200987 0.97375619 3.3570001
0.23073959 0.97375619 3.3570001
0.23982599 0.97520655 3.3620002
0.24849474 0.97491646 3.3610001
0.25723487 0.97491646 3.3610001
0.26573759 0.97404635 3.3580003
0.27397949 0.97230589 3.3520002
0.28269622 0.97230589 3.3520002
0.29149982 0.97259593 3.3530002
0.29735395 0.96331376 3.3210001
0.30599007 0.96331376 3.3210001
0.31519458 0.96505421 3.3270001
0.31975806 0.95287132 3.2850001
0.32840046 0.95316148 3.2860003
0.33674046 0.95258129 3.2840002
0.34496495 0.95171112 3.2810001
0.35338926 0.95142102 3.2800002
0.36169806 0.95084089 3.2780001
0.37010941 0.95055085 3.2770002
0.37851554 0.95026082 3.2760003
0.38561693 0.94677997 3.2640002
0.39386329 0.94619977 3.2620001
0.40209928 0.9456197 3.2600002
0.40427953 0.93111628 3.21
0.41275555 0.93140638 3.2110002
0.4208433 0.93082625 3.2090001
0.42597827 0.92386466 3.1850002
0.433988 0.92328447 3.1830001
0.43740216 0.91313219 3.1480002
0.44530526 0.912552 3.1460001
0.44973844 0.90501022 3.1200001
0.45770517 0.90472019 3.1190002
0.4610368 0.89543802 3.0870001
0.46876046 0.89485788 3.085
0.47631925 0.89398772 3.0820003
0.48150516 0.88876647 3.0640001
0.48835468 0.88673604 3.0570002
0.49646658 0.88702607 3.0580001
0.5047487 0.8876062 3.0600002
0.51354378 0.8890565 3.0650001
0.52202463 0.88992673 3.0680001
0.53017563 0.89021683 3.0690002
0.54376763 0.89949894 3.1010001
0.55912775 0.91139174 3.1420002
0.57433993 0.9227044 3.1810002
0.58371085 0.92444474 3.187
0.59812844 0.934017 3.2200003
0.60725528 0.93517727 3.2240002
0.62289542 0.94619977 3.2620001
0.63176519 0.94677997 3.2640002
0.64064538 0.9473601 3.2660003
0.64933723 0.94765019 3.2670002
0.65783292 0.94765019 3.2670002
0.66612458 0.9473601 3.2660003
0.67420453 0.94677997 3.2640002
0.67495358 0.93604749 3.2270002
0.68292171 0.9354673 3.2250001
0.6908794 0.93488717 3.223
0.69101626 0.92386466 3.1850002
0.69820088 0.92241424 3.1800001
0.70558167 0.92125404 3.1760001
0.71316642 0.92038381 3.1730001
0.72119027 0.92009377 3.1720002
0.72966886 0.92038381 3.1730001
0.7383852 0.92096394 3.1750002
0.7466417 0.92096394 3.1750002
0.75418478 0.92009377 3.1720002
0.7679618 0.92676532 3.1950002
0.77456951 0.92473483 3.1880002
0.78531539 0.92763549 3.1980002
0.79139811 0.92502487 3.1890001
0.79944021 0.92473483 3.1880002
0.80747706 0.92444474 3.187
0.81525284 0.92386466 3.1850002
0.82301801 0.92328447 3.1830001
0.830773 0.9227044 3.1810002
0.84010011 0.92386466 3.1850002
0.83879328 0.91342223 3.1490002
0.84644413 0.91284204 3.1470001
0.85435623 0.912552 3.1460001
