# .PCD v0.7 - Point Cloud Data file format
VERSION 0.7
FIELDS x y z
SIZE 4 4 4
TYPE F F F
COUNT 1 1 1
WIDTH 1432
HEIGHT 1
VIEWPOINT 0 0 0 1 0 0 0
POINTS 1432
DATA ascii
-0.47701618 -0.0022018061 1.8610001
-0.47192302 -0.002200623 1.8600001
-0.46633279 -0.0021970735 1.8570001
-0.46075821 -0.002193524 1.8540001
-0.45593697 -0.002193524 1.8540001
-0.45038578 -0.0021899748 1.8510001
-0.44485018 -0.0021864253 1.848
-0.43956831 -0.002184059 1.8460001
-0.43382582 -0.0021793267 1.8420001
-0.42833701 -0.0021757772 1.8390001
-0.42309415 -0.002173411 1.8370001
-0.41808942 -0.0021722277 1.8360001
-0.41308984 -0.0021710447 1.835
-0.40831801 -0.0021710447 1.835
-0.40398604 -0.002173411 1.8370001
-0.39986095 -0.0021769602 1.84
-0.39593497 -0.0021816927 1.8440001
-0.39177611 -0.0021852423 1.8470001
-0.38781112 -0.0021899748 1.8510001
-0.38361841 -0.002193524 1.8540001
-0.37961444 -0.0021982566 1.858
-0.37538797 -0.0022018061 1.8610001
-0.37094671 -0.0022041723 1.863
-0.36649513 -0.0022065386 1.8650001
-0.3620331 -0.0022089048 1.8670001
-0.35756069 -0.0022112711 1.8690001
-0.35307786 -0.0022136373 1.8710001
-0.34858465 -0.0022160036 1.8730001
-0.34408104 -0.0022183699 1.8750001
-0.33974791 -0.0022219194 1.8780001
-0.33522087 -0.0022242856 1.8800001
-0.33103487 -0.0022290181 1.8840001
-0.32682803 -0.0022337507 1.8880001
-0.32260042 -0.0022384832 1.8920001
-0.31818408 -0.0022420324 1.8950001
-0.31375217 -0.0022455819 1.8980001
-0.30946732 -0.0022503145 1.9020001
-0.30500159 -0.0022538637 1.9050001
-0.30052024 -0.0022574132 1.9080001
-0.29602328 -0.0022609627 1.9110001
-0.29135844 -0.0022633288 1.9130001
-0.2868329 -0.0022668783 1.9160001
-0.28229174 -0.0022704278 1.9190001
-0.27759048 -0.002272794 1.9210001
-0.27287883 -0.00227516 1.9230001
-0.26815677 -0.0022775263 1.9250001
-0.26356098 -0.0022810758 1.9280001
-0.25881553 -0.0022834421 1.9300001
-0.25405964 -0.0022858083 1.932
-0.24929337 -0.0022881746 1.9340001
-0.244643 -0.0022917239 1.937
-0.23985334 -0.0022940903 1.9390001
-0.23505326 -0.0022964566 1.9410001
-0.23036128 -0.0023000059 1.9440001
-0.22553781 -0.0023023721 1.9460001
-0.22070391 -0.0023047384 1.9480001
-0.21585962 -0.0023071046 1.95
-0.21089685 -0.0023082879 1.9510001
-0.20592888 -0.0023094709 1.9520001
-0.20105858 -0.0023118372 1.9540001
-0.19607759 -0.0023130202 1.955
-0.19079831 -0.0023106541 1.9530001
-0.18590982 -0.0023130202 1.955
-0.1815659 -0.0023224854 1.9630001
-0.17655112 -0.0023236685 1.9640001
-0.17170571 -0.002327218 1.9670001
-0.1666753 -0.002328401 1.9680001
-0.16147554 -0.002327218 1.9670001
-0.15636045 -0.002327218 1.9670001
-0.15109159 -0.0023248517 1.9650002
-0.1459074 -0.0023236685 1.9640001
-0.14072841 -0.0023224854 1.9630001
-0.13555466 -0.0023213022 1.9620001
-0.13031958 -0.0023189359 1.96
-0.1252227 -0.0023189359 1.96
-0.12006453 -0.0023177529 1.9590001
-0.11485287 -0.0023153867 1.9570001
-0.1096516 -0.0023130202 1.955
-0.10451423 -0.0023118372 1.9540001
-0.099382065 -0.0023106541 1.9530001
-0.094206817 -0.0023082879 1.9510001
-0.089681566 -0.0023224854 1.9630001
-0.084576882 -0.0023224854 1.9630001
-0.079472192 -0.0023224854 1.9630001
-0.07432963 -0.0023213022 1.9620001
-0.069192261 -0.0023201192 1.9610001
-0.064060092 -0.0023189359 1.96
-0.058903039 -0.0023165697 1.9580001
-0.053756393 -0.0023142034 1.9560001
-0.048595261 -0.0023106541 1.9530001
-0.043182354 -0.0022929071 1.9380001
-0.038103316 -0.0022905408 1.9360001
-0.033034682 -0.0022881746 1.9340001
-0.027990928 -0.0022869913 1.9330001
-0.022952374 -0.0022858083 1.932
-0.017919026 -0.0022846253 1.9310001
-0.012890875 -0.0022834421 1.9300001
-0.007872005 -0.0022834421 1.9300001
-0.0028531346 -0.0022834421 1.9300001
0.0021657357 -0.0022834421 1.9300001
0.0071883285 -0.0022846253 1.9310001
0.012197154 -0.0022822591 1.9290001
0.017213423 -0.0022822591 1.9290001
0.02221817 -0.0022810758 1.9280001
0.027217714 -0.0022798926 1.927
0.032212056 -0.0022787096 1.9260001
0.037201203 -0.0022775263 1.9250001
0.04220707 -0.0022775263 1.9250001
0.047212936 -0.0022775263 1.9250001
0.052218806 -0.0022775263 1.9250001
0.057224672 -0.0022775263 1.9250001
0.062262867 -0.0022787096 1.9260001
0.067306265 -0.0022798926 1.927
0.072392397 -0.0022822591 1.9290001
0.077448793 -0.0022834421 1.9300001
0.082553118 -0.0022858083 1.932
0.087622516 -0.0022869913 1.9330001
0.092697129 -0.0022881746 1.9340001
0.097726397 -0.0022881746 1.9340001
0.10275567 -0.0022881746 1.9340001
0.10778494 -0.0022881746 1.9340001
0.11275588 -0.0022869913 1.9330001
0.11772162 -0.0022858083 1.932
0.12268216 -0.0022846253 1.9310001
0.12757136 -0.0022822591 1.9290001
0.1325189 -0.0022810758 1.9280001
0.1373899 -0.0022787096 1.9260001
0.14225049 -0.0022763433 1.9240001
0.14717723 -0.00227516 1.9230001
0.15201963 -0.002272794 1.9210001
0.15676989 -0.0022692445 1.9180001
0.16150454 -0.002265695 1.9150001
0.16622359 -0.0022621457 1.9120001
0.17092703 -0.0022585962 1.909
0.17570703 -0.00225623 1.9070001
0.18047661 -0.0022538637 1.9050001
0.1852358 -0.0022514975 1.9030001
0.18998457 -0.0022491314 1.9010001
0.19472295 -0.002246765 1.899
0.19955607 -0.0022455819 1.8980001
0.20449172 -0.0022455819 1.8980001
0.20942739 -0.0022455819 1.8980001
0.21436302 -0.0022455819 1.8980001
0.21929869 -0.0022455819 1.8980001
0.22435249 -0.002246765 1.899
0.22941148 -0.0022479482 1.9000001
0.23459902 -0.0022503145 1.9020001
0.23979697 -0.0022526807 1.904
0.24500531 -0.002255047 1.9060001
0.25022408 -0.0022574132 1.9080001
0.25545323 -0.0022597795 1.9100001
0.26069275 -0.0022621457 1.9120001
0.26580378 -0.0022633288 1.9130001
0.27106154 -0.002265695 1.9150001
0.27604139 -0.002265695 1.9150001
0.28102127 -0.002265695 1.9150001
0.28585178 -0.002264512 1.914
0.2906771 -0.0022633288 1.9130001
0.29565173 -0.0022633288 1.9130001
0.30062643 -0.0022633288 1.9130001
0.30544132 -0.0022621457 1.9120001
0.31041339 -0.0022621457 1.9120001
0.31555042 -0.0022633288 1.9130001
0.3206926 -0.002264512 1.914
0.32584003 -0.002265695 1.9150001
0.33099267 -0.0022668783 1.9160001
0.33597511 -0.0022668783 1.9160001
0.34113553 -0.0022680613 1.9170001
0.34612057 -0.0022680613 1.9170001
0.35092252 -0.0022668783 1.9160001
0.35571921 -0.002265695 1.9150001
0.36069906 -0.002265695 1.9150001
0.36529705 -0.0022633288 1.9130001
0.37027171 -0.0022633288 1.9130001
0.37485406 -0.0022609627 1.9110001
0.37962475 -0.0022597795 1.9100001
0.38459161 -0.0022597795 1.9100001
0.38976243 -0.0022609627 1.9110001
0.39473188 -0.0022609627 1.9110001
0.41204169 -0.0023307675 1.9700001
0.43029362 -0.0024041214 2.0320001
0.64978385 -0.0034204305 2.891
0.66571414 -0.0034642066 2.9280002
0.67378813 -0.0034665726 2.9300001
0.68350053 -0.0034772209 2.9390001
0.69114327 -0.0034772209 2.9390001
0.69854826 -0.0034760379 2.9380002
0.70594794 -0.0034748544 2.937
0.7135855 -0.0034748544 2.937
0.72171414 -0.0034772209 2.9390001
0.73059773 -0.0034831367 2.9440002
0.7377519 -0.0034807702 2.9420002
0.75072312 -0.003505616 2.9630001
0.75894022 -0.0035079822 2.9650002
0.7666505 -0.0035079822 2.9650002
0.77618903 -0.003516264 2.9720001
0.78655529 -0.0035280953 2.9820001
0.79537523 -0.0035328278 2.9860001
0.80340922 -0.0035340113 2.9870002
0.81090516 -0.0035328278 2.9860001
0.81620258 -0.00352218 2.9770002
0.82366735 -0.0035209965 2.9760001
0.83056813 -0.0035174473 2.973
0.83660752 -0.0035103487 2.9670002
0.84346938 -0.0035067992 2.9640002
0.84974116 -0.0035008835 2.9590001
0.85714614 -0.0034997005 2.9580002
0.86337644 -0.0034937847 2.9530001
0.86663097 -0.0034760379 2.9380002
0.87278318 -0.0034701219 2.9330001
0.87530744 -0.0034500088 2.9160001
0.88107359 -0.00344291 2.9100001
0.88803023 -0.003440544 2.9080002
0.89528435 -0.0034393605 2.9070001
0.90253329 -0.0034381775 2.9060001
0.90977705 -0.0034369945 2.9050002
0.9173314 -0.0034369945 2.9050002
0.92424887 -0.003434628 2.9030001
0.93179798 -0.003434628 2.9030001
0.93934715 -0.003434628 2.9030001
0.94722235 -0.0034358113 2.904
0.9554317 -0.0034381775 2.9060001
0.9633199 -0.0034393605 2.9070001
0.97321731 -0.0034476425 2.914
0.9814682 -0.0034500088 2.9160001
0.99515635 -0.0034713054 2.9340003
0.99971008 -0.0034606571 2.9250002
1.0086939 -0.0034653896 2.9290001
1.0208213 -0.0034807702 2.9420002
1.0291711 -0.0034831367 2.9440002
1.0368268 -0.0034831367 2.9440002
1.0412894 -0.0034724884 2.9350002
1.0485644 -0.0034713054 2.9340003
1.0565542 -0.0034724884 2.9350002
1.0638239 -0.0034713054 2.9340003
1.0714537 -0.0034713054 2.9340003
1.07798 -0.0034677559 2.9310002
1.0852314 -0.0034665726 2.9300001
1.0921049 -0.0034642066 2.9280002
1.0982167 -0.0034594738 2.924
1.1050639 -0.0034571076 2.9220002
1.1115202 -0.0034535583 2.9190001
1.1179606 -0.0034500088 2.9160001
1.1236137 -0.0034440933 2.9110003
1.1331265 -0.0034500088 2.9160001
1.1375799 -0.003440544 2.9080002
1.1439607 -0.0034369945 2.9050002
1.1499294 -0.0034322618 2.901
1.1562763 -0.0034287127 2.8980002
1.1626077 -0.0034251632 2.8950002
1.1689234 -0.0034216137 2.8920002
1.1752235 -0.0034180644 2.8890002
1.1819174 -0.003415698 2.8870001
1.1881889 -0.0034121487 2.8840001
1.195274 -0.0034109654 2.8830001
1.2015196 -0.0034074162 2.8800001
1.2081692 -0.0034050497 2.878
1.2148086 -0.0034026837 2.8760002
1.2214375 -0.0034003172 2.8740001
1.2280561 -0.0033979511 2.8720002
1.2346641 -0.0033955849 2.8700001
1.2416947 -0.0033944019 2.8690002
1.2482845 -0.0033920354 2.8670001
1.254426 -0.0033884859 2.8640001
1.2609925 -0.0033861198 2.8620002
1.2671053 -0.0033825706 2.8590002
1.2736485 -0.0033802041 2.8570001
1.2797328 -0.0033766546 2.8540001
1.2876054 -0.0033778378 2.855
1.2954834 -0.0033790211 2.8560002
1.3029103 -0.0033790211 2.8560002
1.3103371 -0.0033790211 2.8560002
1.3191482 -0.0033825706 2.8590002
1.327511 -0.0033849366 2.8610001
1.3354174 -0.0033861198 2.8620002
1.3433291 -0.0033873029 2.8630002
1.351246 -0.0033884859 2.8640001
1.3586936 -0.0033884859 2.8640001
1.3647103 -0.0033849366 2.8610001
1.3716707 -0.0033837536 2.8600001
1.3786258 -0.0033825706 2.8590002
1.3860605 -0.0033825706 2.8590002
1.3934951 -0.0033825706 2.8590002
1.4009298 -0.0033825706 2.8590002
-1.1000742 0.0028473965 2.0090001
-1.09376 0.0028445623 2.0070002
-1.0879985 0.0028431446 2.006
-1.0844012 0.0028473965 2.0090001
-1.0791769 0.0028473965 2.0090001
-1.0739527 0.0028473965 2.0090001
-1.0681964 0.0028459795 2.0080001
-1.0629747 0.0028459795 2.0080001
-1.057753 0.0028459795 2.0080001
-1.0530554 0.0028473965 2.0090001
-1.0478311 0.0028473965 2.0090001
-1.0426068 0.0028473965 2.0090001
-1.0378988 0.0028488138 2.01
-1.0326719 0.0028488138 2.01
-1.0274451 0.0028488138 2.01
-1.0222181 0.0028488138 2.01
-1.0169911 0.0028488138 2.01
-1.011261 0.0028473965 2.0090001
-1.0055358 0.0028459795 2.0080001
-0.99981606 0.0028445623 2.0070002
-0.99360579 0.0028417273 2.0050001
-0.98740596 0.0028388926 2.003
-0.98170692 0.0028374754 2.0020001
-0.9755252 0.0028346407 2
-0.97032434 0.0028346407 2
-0.96512341 0.0028346407 2
-0.95992249 0.0028346407 2
-0.95424432 0.0028332234 1.9990001
-0.94904596 0.0028332234 1.9990001
-0.94384772 0.0028332234 1.9990001
-0.93817985 0.0028318062 1.9980001
-0.93298417 0.0028318062 1.9980001
-0.92732412 0.002830389 1.9970001
-0.922131 0.002830389 1.9970001
-0.91693789 0.002830389 1.9970001
-0.9112882 0.0028289715 1.9960001
-0.90609771 0.0028289715 1.9960001
-0.90090716 0.0028289715 1.9960001
-0.89571673 0.0028289715 1.9960001
-0.89097238 0.002830389 1.9970001
-0.88533568 0.0028289715 1.9960001
-0.8797043 0.0028275542 1.9950001
-0.87407798 0.0028261368 1.9940001
-0.86845696 0.0028247195 1.9930001
-0.86240792 0.0028218848 1.9910001
-0.8567999 0.0028204676 1.9900001
-0.85076904 0.0028176329 1.988
-0.84474868 0.0028147984 1.9860001
-0.83873868 0.0028119637 1.9840001
-0.83315921 0.0028105462 1.983
-0.82800257 0.0028105462 1.983
-0.82201594 0.0028077117 1.9810001
-0.81686449 0.0028077117 1.9810001
-0.81130326 0.0028062945 1.9800001
-0.80574715 0.002804877 1.9790001
-0.80019635 0.0028034598 1.978
-0.79465073 0.0028020425 1.9770001
-0.78871095 0.0027992078 1.9750001
-0.78317833 0.0027977906 1.9740001
-0.778045 0.0027977906 1.9740001
-0.77252012 0.0027963731 1.973
-0.76738948 0.0027963731 1.973
-0.76264513 0.0027977906 1.9740001
-0.75827926 0.0028006251 1.9760001
-0.75390309 0.0028034598 1.978
-0.74951655 0.0028062945 1.9800001
-0.74511951 0.002809129 1.9820001
-0.74295217 0.0028204676 1.9900001
-0.73703575 0.0028176329 1.988
-0.73260236 0.0028204676 1.9900001
-0.72815853 0.0028233023 1.9920001
-0.72334141 0.0028247195 1.9930001
-0.71851903 0.0028261368 1.9940001
-0.71404922 0.0028289715 1.9960001
-0.70885867 0.0028289715 1.9960001
-0.7040208 0.002830389 1.9970001
-0.69847769 0.0028289715 1.9960001
-0.69293988 0.0028275542 1.9950001
-0.68740726 0.0028261368 1.9940001
-0.68222195 0.0028261368 1.9940001
-0.67635757 0.0028233023 1.9920001
-0.67084056 0.0028218848 1.9910001
-0.66532868 0.0028204676 1.9900001
-0.65882683 0.0028147984 1.9860001
-0.65267497 0.0028105462 1.983
-0.64653867 0.0028062945 1.9800001
-0.64009398 0.0028006251 1.9760001
-0.63367021 0.0027949559 1.9720001
-0.63077325 0.002804877 1.9790001
-0.62467849 0.0028006251 1.9760001
-0.61013412 0.0027581055 1.9460001
-0.60289711 0.0027481844 1.9390001
-0.59538817 0.0027368458 1.9310001
-0.58883804 0.0027297591 1.9260001
-0.58201075 0.0027212552 1.9200001
-0.57341158 0.0027042474 1.9080001
-0.56606644 0.0026929087 1.9000001
-0.55935359 0.0026844048 1.8940001
-0.55267203 0.0026759009 1.8880001
-0.54631174 0.0026688145 1.8830001
-0.5396899 0.0026603104 1.8770001
-0.5333842 0.0026532239 1.8720001
-0.52682221 0.0026447198 1.8660001
-0.52113056 0.0026404678 1.863
-0.51573169 0.0026376331 1.8610001
-0.51034319 0.0026347986 1.8590001
-0.50578088 0.0026362161 1.8600001
-0.50094408 0.0026362161 1.8600001
-0.49610722 0.0026362161 1.8600001
-0.49074209 0.0026333812 1.858
-0.48564899 0.0026319639 1.8570001
-0.48081991 0.0026319639 1.8570001
-0.47573459 0.0026305467 1.8560001
-0.47065443 0.0026291294 1.8550001
-0.46532831 0.0026262947 1.853
-0.4595156 0.0026206255 1.8490001
-0.45446146 0.0026192081 1.848
-0.44916919 0.0026163734 1.8460001
-0.44388729 0.0026135389 1.8440001
-0.43813959 0.0026078695 1.84
-0.43288374 0.002605035 1.8380001
-0.42717242 0.0025993655 1.8340001
-0.42194256 0.0025965311 1.8320001
-0.41717854 0.0025965311 1.8320001
-0.41218939 0.0025951136 1.8310001
-0.4076505 0.0025965311 1.8320001
-0.4033263 0.0025993655 1.8340001
-0.39920902 0.0026036177 1.8370001
-0.39529082 0.0026092869 1.8410001
-0.39135185 0.0026149561 1.845
-0.38718259 0.0026192081 1.848
-0.38320461 0.0026248775 1.8520001
-0.37941015 0.0026319639 1.8570001
-0.37518626 0.0026362161 1.8600001
-0.37094671 0.0026404678 1.863
-0.36649513 0.0026433025 1.8650001
-0.36222702 0.0026475545 1.868
-0.35775203 0.0026503892 1.8700001
-0.35326657 0.0026532239 1.8720001
-0.34895685 0.0026574759 1.8750001
-0.34444806 0.0026603104 1.8770001
-0.34010971 0.0026645623 1.8800001
-0.3357558 0.0026688145 1.8830001
-0.33138627 0.0026730662 1.886
-0.32717425 0.0026787356 1.8900001
-0.32294142 0.0026844048 1.8940001
-0.31851989 0.0026886568 1.8970001
-0.31424809 0.0026943262 1.9010001
-0.30979273 0.0026985779 1.904
-0.30532178 0.0027028299 1.9070001
-0.30083525 0.0027070821 1.9100001
-0.29648799 0.0027127513 1.914
-0.29181537 0.002715586 1.9160001
-0.28713229 0.0027184205 1.9180001
-0.28243881 0.0027212552 1.9200001
-0.27787948 0.0027255071 1.9230001
-0.27316263 0.0027283418 1.9250001
-0.26843536 0.0027311763 1.927
-0.26356098 0.0027325938 1.9280001
-0.25894964 0.0027368458 1.9310001
-0.25432268 0.0027410977 1.9340001
-0.24955118 0.0027439324 1.9360001
-0.24489561 0.0027481844 1.9390001
-0.24010073 0.0027510189 1.9410001
-0.23541656 0.0027552708 1.9440001
-0.23071678 0.002759523 1.9470001
-0.2260014 0.0027637747 1.95
-0.22104381 0.0027651922 1.9510001
-0.21630242 0.0027694441 1.9540001
-0.21143734 0.0027722786 1.9560001
-0.20645635 0.0027736961 1.9570001
-0.20167595 0.0027779478 1.96
-0.19677967 0.0027807828 1.9620001
-0.19206835 0.002786452 1.9660001
-0.18714605 0.0027892864 1.9680001
-0.18202837 0.0027892864 1.9680001
-0.17700058 0.0027907039 1.9690001
-0.17205487 0.0027935384 1.9710001
-0.16701408 0.0027949559 1.9720001
-0.1618039 0.0027935384 1.9710001
-0.15667841 0.0027935384 1.9710001
-0.15139915 0.0027907039 1.9690001
-0.14627886 0.0027907039 1.9690001
-0.14101517 0.0027878692 1.9670001
-0.13576192 0.0027850347 1.9650002
-0.13058554 0.0027836172 1.9640001
-0.12541437 0.0027822 1.9630001
-0.1201871 0.0027793653 1.9610001
-0.11502893 0.0027779478 1.96
-0.10981987 0.0027751133 1.9580001
-0.1046747 0.0027736961 1.9570001
-0.09948384 0.0027708614 1.955
-0.094399959 0.0027708614 1.955
-0.089270398 0.0027694441 1.9540001
-0.084663056 0.0027850347 1.9650002
-0.079553165 0.0027850347 1.9650002
-0.074405394 0.0027836172 1.9640001
-0.069262825 0.0027822 1.9630001
-0.064092778 0.0027793653 1.9610001
-0.058933124 0.0027765308 1.9590001
-0.053783875 0.0027736961 1.9570001
-0.048645023 0.0027708614 1.955
-0.043494303 0.0027666094 1.9520001
-0.038142677 0.0027467669 1.9380001
-0.033068843 0.0027439324 1.9360001
-0.028019888 0.0027425149 1.9350001
-0.022976136 0.0027410977 1.9340001
-0.017937586 0.0027396802 1.9330001
-0.012904233 0.002738263 1.932
-0.0078801624 0.002738263 1.932
-0.0028560911 0.002738263 1.932
0.00216798 0.002738263 1.932
0.007192051 0.002738263 1.932
0.0122098 0.0027368458 1.9310001
0.017231271 0.0027368458 1.9310001
0.022241216 0.0027354283 1.9300001
0.027245965 0.002734011 1.9290001
0.032228783 0.0027311763 1.927
0.037239853 0.0027311763 1.927
0.042228997 0.0027297591 1.9260001
0.047212936 0.0027283418 1.9250001
0.052245934 0.0027297591 1.9260001
0.0572544 0.0027297591 1.9260001
0.062295195 0.0027311763 1.927
0.067376129 0.002734011 1.9290001
0.072467454 0.0027368458 1.9310001
0.07752905 0.002738263 1.932
0.082638577 0.0027410977 1.9340001
0.087713175 0.0027425149 1.9350001
0.092840917 0.0027453497 1.937
0.097877987 0.0027453497 1.937
0.10291506 0.0027453497 1.937
0.10795213 0.0027453497 1.937
0.11293087 0.0027439324 1.9360001
0.11790442 0.0027425149 1.9350001
0.12287276 0.0027410977 1.9340001
0.12783588 0.0027396802 1.9330001
0.1327251 0.0027368458 1.9310001
0.13767524 0.0027354283 1.9300001
0.14262018 0.002734011 1.9290001
0.14748336 0.0027311763 1.927
0.15233618 0.0027283418 1.9250001
0.1572603 0.0027269246 1.9240001
0.16201057 0.0027226727 1.9210001
0.16674522 0.0027184205 1.9180001
0.17155381 0.002715586 1.9160001
0.17625986 0.002711334 1.9130001
0.18104504 0.0027084993 1.9110001
0.18581982 0.0027056646 1.909
0.1905842 0.0027028299 1.9070001
0.19533819 0.0026999954 1.9050001
0.20018691 0.0026985779 1.904
0.20503043 0.0026971607 1.9030001
0.20997909 0.0026971607 1.9030001
0.2148148 0.0026957435 1.9020001
0.21976085 0.0026957435 1.9020001
0.22470692 0.0026957435 1.9020001
0.22977372 0.0026971607 1.9030001
0.23496906 0.0026999954 1.9050001
0.2401748 0.0027028299 1.9070001
0.24539094 0.0027056646 1.909
0.2506175 0.0027084993 1.9110001
0.25585446 0.002711334 1.9130001
0.26096544 0.0027127513 1.914
0.26622063 0.002715586 1.9160001
0.27148619 0.0027184205 1.9180001
0.27647382 0.0027184205 1.9180001
0.28146151 0.0027184205 1.9180001
0.28644916 0.0027184205 1.9180001
0.29128489 0.0027170032 1.9170001
0.29626992 0.0027170032 1.9170001
0.30109787 0.002715586 1.9160001
0.30608034 0.002715586 1.9160001
0.31106278 0.002715586 1.9160001
0.31621021 0.0027170032 1.9170001
0.32119527 0.0027170032 1.9170001
0.32635048 0.0027184205 1.9180001
0.33151093 0.0027198379 1.9190001
0.33650118 0.0027198379 1.9190001
0.34166938 0.0027212552 1.9200001
0.34648171 0.0027198379 1.9190001
0.35147199 0.0027198379 1.9190001
0.35627648 0.0027184205 1.9180001
0.36107576 0.0027170032 1.9170001
0.36567894 0.0027141685 1.9150001
0.37065881 0.0027141685 1.9150001
0.37524635 0.002711334 1.9130001
0.38002226 0.0027099166 1.9120001
0.38499433 0.0027099166 1.9120001
0.38996637 0.0027099166 1.9120001
0.39535153 0.0027127513 1.914
0.41246003 0.0027949559 1.9720001
0.4338935 0.0029040894 2.049
0.56229323 0.0036297576 2.5610001
0.62360442 0.0039784182 2.8070002
0.65000862 0.0040988908 2.8920002
0.66594148 0.0041513313 2.9290001
0.67401814 0.0041541662 2.9310002
0.68466336 0.0041725915 2.9440002
0.6923191 0.0041725915 2.9440002
0.69949925 0.0041697565 2.9420002
0.70979375 0.0041853469 2.9530001
0.71722996 0.0041839299 2.9520001
0.72294199 0.0041725915 2.9440002
0.73059773 0.0041725915 2.9440002
0.73850417 0.0041740085 2.9450002
0.75351018 0.004215111 2.9740002
0.76022005 0.0042094416 2.97
0.76820189 0.0042108591 2.9710002
0.77749491 0.004219363 2.9770002
0.78576398 0.0042221975 2.9790001
0.79377705 0.0042236149 2.9800003
0.80475402 0.0042406227 2.9920001
0.81199151 0.0042377883 2.9900002
0.81812179 0.0042292844 2.9840002
0.82532799 0.0042264494 2.9820001
0.83196503 0.00422078 2.9780002
0.83829927 0.0042136936 2.973
0.8448922 0.0042080241 2.9690001
0.85117704 0.0042009377 2.9640002
0.85772568 0.0041952683 2.96
0.86366886 0.0041867648 2.9540002
0.86810577 0.004171174 2.9430001
0.87397349 0.0041626701 2.937
0.87620795 0.0041371584 2.9190001
0.8822847 0.0041300715 2.914
0.88894635 0.00412582 2.9110003
0.89651632 0.00412582 2.9110003
0.90346497 0.0041229851 2.9090002
0.91102976 0.0041229851 2.9090002
0.91827875 0.0041215681 2.9080002
0.92552239 0.0041201501 2.9070001
0.93308192 0.0041201501 2.9070001
0.94064146 0.0041201501 2.9070001
0.9485271 0.0041215681 2.9080002
0.95641804 0.0041229851 2.9090002
0.96563953 0.0041300715 2.914
0.9738853 0.0041329064 2.9160001
0.98247796 0.0041371584 2.9190001
0.99142534 0.0041428274 2.9230001
1.0041533 0.0041640876 2.9380002
1.0131708 0.0041697565 2.9420002
1.0218623 0.0041740085 2.9450002
1.0302198 0.004176843 2.947
1.0378834 0.004176843 2.947
1.0451921 0.004175426 2.9460001
1.048207 0.0041570007 2.9330001
1.0572741 0.0041626701 2.937
1.0649116 0.0041626701 2.937
1.0718188 0.0041598356 2.9350002
1.0787156 0.0041570007 2.9330001
1.0859723 0.0041555837 2.9320002
1.0924778 0.0041513313 2.9290001
1.0993434 0.0041484968 2.927
1.1050639 0.0041414103 2.9220002
1.1115202 0.0041371584 2.9190001
1.1168104 0.0041286545 2.9130001
1.1236137 0.00412582 2.9110003
1.1304064 0.0041229851 2.9090002
1.137971 0.0041229851 2.9090002
1.1439607 0.0041173161 2.9050002
1.1503258 0.0041130637 2.9020002
1.1566753 0.0041088117 2.8990002
1.1630093 0.0041045598 2.8960001
1.1693276 0.0041003078 2.8930001
1.1760371 0.0040974733 2.891
1.1827363 0.0040946389 2.8890002
1.189013 0.0040903869 2.8860002
1.1961032 0.0040889694 2.8850002
1.202354 0.0040847175 2.8820002
1.2090089 0.0040818825 2.8800001
1.2156533 0.0040790481 2.878
1.2222875 0.0040762136 2.8760002
1.2289112 0.0040733786 2.8740001
1.2359546 0.0040719616 2.8730001
1.2425601 0.0040691267 2.8710001
1.2495906 0.0040677097 2.8700001
1.2557399 0.0040634577 2.8670001
1.2623143 0.0040606232 2.8650002
1.268435 0.0040563713 2.8620002
1.2754316 0.0040549533 2.8610001
1.2819748 0.0040521193 2.8590002
1.2889584 0.0040507014 2.858
1.2968441 0.0040521193 2.8590002
1.3042789 0.0040521193 2.8590002
1.312631 0.0040549533 2.8610001
1.3214552 0.0040592058 2.8640001
1.329367 0.0040606232 2.8650002
1.3372838 0.0040620402 2.8660002
1.3456751 0.0040648747 2.868
1.353605 0.0040662922 2.8690002
1.3605912 0.0040648747 2.868
1.3670954 0.0040620402 2.8660002
1.3740687 0.0040606232 2.8650002
1.3810368 0.0040592058 2.8640001
1.3879997 0.0040577883 2.8630002
1.3954448 0.0040577883 2.8630002
1.4028898 0.0040577883 2.8630002
-1.1017169 0.0080837561 2.0120001
-1.0959399 0.0080797384 2.0110002
-1.0901679 0.0080757197 2.01
-1.0871001 0.0080917915 2.0140002
-1.0813257 0.0080877738 2.013
-1.0760909 0.0080877738 2.013
-1.0703242 0.0080837561 2.0120001
-1.0650921 0.0080837561 2.0120001
-1.0603868 0.0080877738 2.013
-1.0556762 0.0080917915 2.0140002
-1.050439 0.0080917915 2.0140002
-1.0452018 0.0080917915 2.0140002
-1.0404807 0.0080958093 2.0150001
-1.0352408 0.0080958093 2.0150001
-1.0305121 0.008099827 2.016
-1.024761 0.0080958093 2.0150001
-1.0190152 0.0080917915 2.0140002
-1.0132744 0.0080877738 2.013
-1.0075389 0.0080837561 2.0120001
-1.0018088 0.0080797384 2.0110002
-0.995588 0.0080717029 2.0090001
-0.98937792 0.0080636675 2.0070002
-0.98366833 0.0080596488 2.006
-0.97796404 0.008055632 2.0050001
-0.97226506 0.0080516143 2.0040002
-0.96657109 0.0080475956 2.003
-0.96184242 0.0080516143 2.0040002
-0.95615375 0.0080475956 2.003
-0.95094502 0.0080475956 2.003
-0.94573635 0.0080475956 2.003
-0.94005811 0.0080435788 2.0020001
-0.93531889 0.0080475956 2.003
-0.92918158 0.0080395611 2.0010002
-0.92443979 0.0080435788 2.0020001
-0.91877455 0.0080395611 2.0010002
-0.91311443 0.0080355424 2
-0.90791351 0.0080355424 2
-0.90271258 0.0080355424 2
-0.89751172 0.0080355424 2
-0.8923108 0.0080355424 2
-0.88710988 0.0080355424 2
-0.88146812 0.0080315247 1.9990001
-0.87583143 0.0080275079 1.9980001
-0.87019998 0.0080234893 1.9970001
-0.86414057 0.0080154538 1.9950001
-0.85809159 0.0080074184 1.9930001
-0.85205293 0.0079993829 1.9910001
-0.84645015 0.0079953652 1.9900001
-0.84042966 0.0079873297 1.988
-0.83483982 0.007983312 1.9870001
-0.82925522 0.0079792943 1.9860001
-0.82326078 0.0079712588 1.9840001
-0.81810153 0.0079712588 1.9840001
-0.81253248 0.0079672402 1.983
-0.80737573 0.0079672402 1.983
-0.80181456 0.0079632234 1.9820001
-0.79625851 0.0079592047 1.9810001
-0.7903083 0.0079511693 1.9790001
-0.78516203 0.0079511693 1.9790001
-0.78001571 0.0079511693 1.9790001
-0.77447784 0.0079471515 1.978
-0.7693342 0.0079471515 1.978
-0.76457685 0.0079511693 1.9790001
-0.760198 0.0079592047 1.9810001
-0.75580883 0.0079672402 1.983
-0.75140923 0.0079752766 1.9850001
-0.74850297 0.0079993829 1.9910001
-0.74444556 0.0080114361 1.9940001
-0.74037248 0.0080234893 1.9970001
-0.7359156 0.0080315247 1.9990001
-0.73108286 0.0080355424 2
-0.72479314 0.0080234893 1.9970001
-0.72032076 0.0080315247 1.9990001
-0.71512246 0.0080315247 1.9990001
-0.71027923 0.0080355424 2
-0.70507836 0.0080355424 2
-0.69987744 0.0080355424 2
-0.6943292 0.0080315247 1.9990001
-0.68913096 0.0080315247 1.9990001
-0.68324834 0.0080234893 1.9970001
-0.67771566 0.0080194715 1.9960001
-0.67252523 0.0080194715 1.9960001
-0.66633171 0.0080074184 1.9930001
-0.66015381 0.0079953652 1.9900001
-0.65399152 0.007983312 1.9870001
-0.64784479 0.0079712588 1.9840001
-0.64171368 0.0079592047 1.9810001
-0.63495553 0.0079391161 1.9760001
-0.6323669 0.0079712588 1.9840001
-0.62625921 0.0079592047 1.9810001
-0.62110776 0.0079592047 1.9810001
-0.60445178 0.0078105479 1.9440001
-0.59754652 0.0077864411 1.9380001
-0.59006095 0.0077542989 1.9300001
-0.58352643 0.0077342098 1.9250001
-0.57341158 0.007665908 1.9080001
-0.56576854 0.007629748 1.899
-0.55846763 0.0075976057 1.891
-0.5515011 0.0075694812 1.8840001
-0.54486108 0.0075453748 1.8780001
-0.53825223 0.007521268 1.8720001
-0.5333842 0.007521268 1.8720001
-0.52512825 0.0074730548 1.8600001
-0.51945221 0.0074610016 1.8570001
-0.51545459 0.0074730548 1.8600001
-0.51006866 0.0074650189 1.858
-0.50550896 0.0074690371 1.8590001
-0.50094408 0.0074730548 1.8600001
-0.49637392 0.0074770725 1.8610001
-0.49153447 0.0074770725 1.8610001
-0.48669505 0.0074770725 1.8610001
-0.4818556 0.0074770725 1.8610001
-0.47624722 0.0074650189 1.858
-0.47141555 0.0074650189 1.858
-0.46608168 0.0074569834 1.8560001
-0.46075821 0.007448948 1.8540001
-0.45544514 0.007440913 1.8520001
-0.44746596 0.0073886816 1.8390001
-0.4426837 0.0073886816 1.8390001
-0.43694898 0.0073726103 1.835
-0.43147063 0.0073605576 1.8320001
-0.42624074 0.0073525216 1.83
-0.42102128 0.0073444862 1.8280001
-0.41581222 0.0073364507 1.8260001
-0.41128892 0.0073404685 1.8270001
-0.40676039 0.0073444862 1.8280001
-0.40244663 0.0073525216 1.83
-0.39833975 0.0073645748 1.8330001
-0.39443198 0.0073806462 1.8370001
-0.39071554 0.0074007353 1.8420001
-0.38676357 0.0074168062 1.8460001
-0.38299769 0.0074368948 1.8510001
-0.37900153 0.0074529662 1.8550001
-0.37498453 0.0074690371 1.8590001
-0.37074763 0.0074810903 1.8620001
-0.36669162 0.0074971612 1.8660001
-0.36242092 0.0075092148 1.8690001
-0.35794333 0.0075172503 1.8710001
-0.35364398 0.0075293034 1.8740001
-0.34914297 0.0075373389 1.876
-0.34481508 0.0075493925 1.8790001
-0.34047154 0.0075614457 1.8820001
-0.33611241 0.0075734993 1.8850001
-0.33191341 0.0075895702 1.8890001
-0.32752046 0.0076016234 1.8920001
-0.32328245 0.0076176948 1.8960001
-0.31902364 0.0076337657 1.9000001
-0.314744 0.0076498366 1.904
-0.31028083 0.0076618898 1.9070001
-0.30580211 0.0076739434 1.9100001
-0.30130777 0.0076859966 1.9130001
-0.29679781 0.0076980502 1.9160001
-0.29211995 0.0077060857 1.9180001
-0.28743172 0.0077141211 1.9200001
-0.28273302 0.0077221566 1.9220001
-0.27802399 0.0077301925 1.9240001
-0.27330452 0.007738228 1.9260001
-0.26857468 0.0077462634 1.9280001
-0.26383439 0.0077542989 1.9300001
-0.25908372 0.0077623343 1.932
-0.25432268 0.0077703702 1.9340001
-0.24980897 0.0077864411 1.9380001
-0.24502191 0.0077944766 1.9400001
-0.24034813 0.0078065298 1.9430001
-0.23565876 0.0078185834 1.9460001
-0.23095377 0.0078306366 1.9490001
-0.2262332 0.0078426898 1.9520001
-0.221497 0.0078547429 1.955
-0.2167452 0.0078667961 1.9580001
-0.21186972 0.0078748316 1.96
-0.20698383 0.0078828679 1.9620001
-0.20208755 0.0078909034 1.9640001
-0.19728114 0.0079029566 1.9670001
-0.19245914 0.0079150097 1.9700001
-0.18752645 0.0079230452 1.9720001
-0.18239835 0.0079230452 1.9720001
-0.17745005 0.0079310806 1.9740001
-0.17240405 0.0079350984 1.9750001
-0.16735284 0.0079391161 1.9760001
-0.16205017 0.0079310806 1.9740001
-0.15691689 0.0079310806 1.9740001
-0.15170671 0.0079270629 1.973
-0.14650172 0.0079230452 1.9720001
-0.14123026 0.0079150097 1.9700001
-0.13596919 0.0079069743 1.9680001
-0.130785 0.0079029566 1.9670001
-0.12554215 0.0078949211 1.9650002
-0.12037097 0.0078909034 1.9640001
-0.11514631 0.0078828679 1.9620001
-0.10993204 0.0078748316 1.96
-0.10478167 0.0078708138 1.9590001
-0.099636503 0.0078667961 1.9580001
-0.094448246 0.0078587607 1.9560001
-0.089316078 0.0078547429 1.955
-0.084189117 0.0078507252 1.9540001
-0.079593651 0.0078989388 1.9660001
-0.074443281 0.0078949211 1.9650002
-0.069298111 0.0078909034 1.9640001
-0.064125463 0.0078828679 1.9620001
-0.058963206 0.0078748316 1.96
-0.053811356 0.0078667961 1.9580001
-0.048669908 0.0078587607 1.9560001
-0.043538865 0.0078507252 1.9540001
-0.038182039 0.0077944766 1.9400001
-0.033103004 0.0077864411 1.9380001
-0.028048849 0.0077824229 1.937
-0.022999896 0.0077784057 1.9360001
-0.017956145 0.0077743875 1.9350001
-0.012924272 0.0077743875 1.9350001
-0.0078883199 0.0077703702 1.9340001
-0.0028590478 0.0077703702 1.9340001
0.0021702242 0.0077703702 1.9340001
0.0071994965 0.0077703702 1.9340001
0.012222446 0.007766352 1.9330001
0.017240193 0.0077623343 1.932
0.022252742 0.0077583166 1.9310001
0.027274212 0.0077583166 1.9310001
0.032262232 0.0077502811 1.9290001
0.03725918 0.0077462634 1.9280001
0.04225092 0.0077422452 1.927
0.047237463 0.007738228 1.9260001
0.052245934 0.007738228 1.9260001
0.0572544 0.007738228 1.9260001
0.062327523 0.0077462634 1.9280001
0.06741105 0.0077542989 1.9300001
0.072504975 0.0077623343 1.932
0.077609308 0.0077703702 1.9340001
0.082724035 0.0077784057 1.9360001
0.087803833 0.0077824229 1.937
0.092936777 0.0077904589 1.9390001
0.098029576 0.0077944766 1.9400001
0.10307445 0.0077944766 1.9400001
0.10811932 0.0077944766 1.9400001
0.11310587 0.0077904589 1.9390001
0.11808722 0.0077864411 1.9380001
0.12306336 0.0077824229 1.937
0.12803429 0.0077784057 1.9360001
0.13300003 0.0077743875 1.9350001
0.13796058 0.0077703702 1.9340001
0.1429159 0.007766352 1.9330001
0.14786604 0.0077623343 1.932
0.15273185 0.0077542989 1.9300001
0.15766898 0.0077502811 1.9290001
0.16251658 0.0077422452 1.927
0.16735376 0.0077342098 1.9250001
0.17209102 0.0077221566 1.9220001
0.17690483 0.0077141211 1.9200001
0.1817082 0.0077060857 1.9180001
0.1865012 0.0076980502 1.9160001
0.19118384 0.0076859966 1.9130001
0.19595343 0.0076779611 1.9110001
0.20081775 0.0076739434 1.9100001
0.20556913 0.007665908 1.9080001
0.21053079 0.007665908 1.9080001
0.21526657 0.0076578725 1.9060001
0.22033857 0.0076618898 1.9070001
0.22517949 0.0076578725 1.9060001
0.23025668 0.0076618898 1.9070001
0.23521574 0.0076618898 1.9070001
0.24042667 0.0076699252 1.909
0.24564803 0.0076779611 1.9110001
0.25087979 0.0076859966 1.9130001
0.25612193 0.007694032 1.9150001
0.26137447 0.0077020675 1.9170001
0.26649854 0.0077060857 1.9180001
0.27176926 0.0077141211 1.9200001
0.27690628 0.0077181389 1.9210001
0.28204849 0.0077221566 1.9220001
0.28689721 0.0077181389 1.9210001
0.29189268 0.0077181389 1.9210001
0.29673359 0.0077141211 1.9200001
0.30156934 0.0077101034 1.9190001
0.30655959 0.0077101034 1.9190001
0.31154984 0.0077101034 1.9190001
0.31769478 0.007738228 1.9260001
0.32287079 0.0077422452 1.927
0.32805198 0.0077462634 1.9280001
0.33185643 0.0077181389 1.9210001
0.33685189 0.0077181389 1.9210001
0.34202528 0.0077221566 1.9220001
0.3468428 0.0077181389 1.9210001
0.35183829 0.0077181389 1.9210001
0.35646224 0.0077101034 1.9190001
0.36145249 0.0077101034 1.9190001
0.36606085 0.0077020675 1.9170001
0.37065881 0.007694032 1.9150001
0.3754425 0.0076900143 1.914
0.38022104 0.0076859966 1.9130001
0.38499433 0.0076819789 1.9120001
0.39017034 0.0076859966 1.9130001
0.39576468 0.0076980502 1.9160001
0.41287833 0.0079310806 1.9740001
0.57678419 0.010554685 2.6270001
0.63804489 0.01153904 2.8720002
0.66686571 0.011920728 2.9670002
0.67435384 0.01191671 2.9660001
0.68137687 0.011904656 2.9630001
0.6865238 0.011860461 2.9520001
0.69373006 0.011852426 2.95
0.70092589 0.01184439 2.9480002
0.71123594 0.011888585 2.9590001
0.71868777 0.011884568 2.9580002
0.72662544 0.011888585 2.9590001
0.73159039 0.01184439 2.9480002
0.73900568 0.011840372 2.947
0.75655049 0.011997066 2.9860001
0.76405954 0.011993048 2.9850001
0.77544177 0.012049296 2.9990001
0.77932304 0.01198903 2.9840002
0.7873466 0.011993048 2.9850001
0.79857165 0.012045279 2.9980001
0.80609888 0.012041261 2.9970002
0.8103621 0.01198903 2.9840002
0.81949258 0.012009119 2.9890001
0.82643503 0.011997066 2.9860001
0.8330825 0.011980995 2.9820001
0.83942723 0.011960906 2.9770002
0.84603047 0.011944834 2.973
0.85232574 0.011924746 2.9680002
0.85859501 0.011904656 2.9630001
0.86425358 0.011876532 2.9560001
0.86928564 0.011840372 2.947
0.87516385 0.011816266 2.9410002
0.87680835 0.011735911 2.9210002
0.88289028 0.011715821 2.9160001
0.88986242 0.011707786 2.914
0.89713222 0.011703768 2.9130001
0.90470731 0.011703768 2.9130001
0.9119693 0.01169975 2.9120002
0.91922605 0.011695733 2.9110003
0.9267959 0.011695733 2.9110003
0.93404484 0.011691715 2.9100001
0.94161218 0.011691715 2.9100001
0.94950569 0.011695733 2.9110003
0.95740438 0.01169975 2.9120002
0.96630234 0.011715821 2.9160001
0.97455329 0.011723857 2.9180002
0.98651695 0.011776089 2.9310002
0.9954955 0.01179216 2.9350002
1.004495 0.011808231 2.9390001
1.0135152 0.011824301 2.9430001
1.0222093 0.011836355 2.9460001
1.0305694 0.01184439 2.9480002
1.0382355 0.01184439 2.9480002
1.0459017 0.01184439 2.9480002
1.0485644 0.011788142 2.9340003
1.0576341 0.011804213 2.9380002
1.0649116 0.011800194 2.937
1.0718188 0.01179216 2.9350002
1.0787156 0.011784123 2.9330001
1.0859723 0.011780106 2.9320002
1.0924778 0.011768052 2.9290001
1.0963387 0.011727875 2.9190001
1.1035513 0.011723857 2.9180002
1.109997 0.011711804 2.9150002
1.1164271 0.01169975 2.9120002
1.1232276 0.011691715 2.9100001
1.1300179 0.011683679 2.9080002
1.1367974 0.011675644 2.9060001
1.1463234 0.011695733 2.9110003
1.1507221 0.011663591 2.9030001
1.1570742 0.011651537 2.9000001
1.1634108 0.011639483 2.8970001
1.170136 0.011631449 2.8950002
1.1764439 0.011619396 2.8920002
1.1831456 0.011611359 2.8900001
1.189425 0.011599306 2.8870001
1.1965178 0.011595288 2.8860002
1.2031883 0.011587253 2.8840001
1.2098485 0.011579217 2.8820002
1.2164981 0.011571182 2.8800001
1.2231374 0.011563146 2.878
1.2306216 0.011563146 2.878
1.2372453 0.011555111 2.8760002
1.2442914 0.011551093 2.8750002
1.2508968 0.011543057 2.8730001
1.2574919 0.011535021 2.8710001
1.2640767 0.011526986 2.8690002
1.2702078 0.011514933 2.8660002
1.2772149 0.011510915 2.8650002
1.2837684 0.01150288 2.8630002
1.2907624 0.011498862 2.8620002
1.2986585 0.01150288 2.8630002
1.3065598 0.011506897 2.8640001
1.3149251 0.011514933 2.8660002
1.3237623 0.011526986 2.8690002
1.331223 0.011526986 2.8690002
1.3391502 0.011531004 2.8700001
1.3470827 0.011535021 2.8710001
1.360682 0.011587253 2.8840001
1.3677074 0.011583235 2.8830001
1.3685265 0.011526986 2.8690002
1.3759872 0.011526986 2.8690002
1.3829654 0.011522968 2.868
1.3899388 0.011518951 2.8670001
1.396907 0.011514933 2.8660002
1.4043598 0.011514933 2.8660002
-1.1044548 0.013348955 2.0170002
-1.0981197 0.013335718 2.0150001
-1.0928799 0.013335718 2.0150001
-1.0897989 0.01336219 2.0190001
-1.0845486 0.01336219 2.0190001
-1.0787638 0.013355573 2.0180001
-1.0729841 0.013348955 2.0170002
-1.067739 0.013348955 2.0170002
-1.0630207 0.013355573 2.0180001
-1.0577729 0.013355573 2.0180001
-1.0525253 0.013355573 2.0180001
-1.0477965 0.01336219 2.0190001
-1.0425462 0.01336219 2.0190001
-1.0378096 0.013368808 2.02
-1.0325567 0.013368808 2.02
-1.0267951 0.01336219 2.0190001
-1.021039 0.013355573 2.0180001
-1.0157913 0.013355573 2.0180001
-1.009542 0.013342335 2.016
-1.0038013 0.013335718 2.0150001
-0.99806589 0.0133291 2.0140002
-0.9913497 0.013309245 2.0110002
-0.98562974 0.013302626 2.01
-0.97942734 0.01328939 2.0080001
-0.97372055 0.013282772 2.0070002
-0.96850145 0.013282772 2.0070002
-0.96376222 0.01328939 2.0080001
-0.95854056 0.01328939 2.0080001
-0.95284414 0.013282772 2.0070002
-0.94762504 0.013282772 2.0070002
-0.94240594 0.013282772 2.0070002
-0.93718684 0.013282772 2.0070002
-0.9315033 0.013276153 2.006
-0.92628676 0.013276153 2.006
-0.92061114 0.013269535 2.0050001
-0.91539729 0.013269535 2.0050001
-0.90972942 0.013262917 2.0040002
-0.90542072 0.013276153 2.006
-0.90065312 0.013282772 2.0070002
-0.89409548 0.013262917 2.0040002
-0.88844055 0.013256298 2.003
-0.88323188 0.013256298 2.003
-0.87714654 0.013243062 2.0010002
-0.87150717 0.013236444 2
-0.86544007 0.013223208 1.9980001
-0.85938317 0.013209971 1.9960001
-0.85376477 0.013203354 1.9950001
-0.84772623 0.013190117 1.9930001
-0.84212071 0.013183499 1.9920001
-0.83652043 0.01317688 1.9910001
-0.83092546 0.013170262 1.9900001
-0.82492059 0.013157025 1.988
-0.81975091 0.013157025 1.988
-0.81417149 0.013150407 1.9870001
-0.80900437 0.013150407 1.9870001
-0.80343276 0.013143789 1.9860001
-0.79786628 0.013137171 1.9850001
-0.79230505 0.013130552 1.9840001
-0.78714579 0.013130552 1.9840001
-0.78159231 0.013123934 1.983
-0.77643555 0.013123934 1.983
-0.7716679 0.013130552 1.9840001
-0.76689494 0.013137171 1.9850001
-0.76250052 0.013150407 1.9870001
-0.75771457 0.013157025 1.988
-0.75330198 0.013170262 1.9900001
-0.7488789 0.013183499 1.9920001
-0.74593896 0.013223208 1.9980001
-0.74185544 0.013243062 2.0010002
-0.73775637 0.013262917 2.0040002
-0.73291063 0.013269535 2.0050001
-0.72805959 0.013276153 2.006
-0.72140181 0.01324968 2.0020001
-0.71655339 0.013256298 2.003
-0.71134466 0.013256298 2.003
-0.70613599 0.013256298 2.003
-0.70092726 0.013256298 2.003
-0.69537121 0.01324968 2.0020001
-0.69016516 0.01324968 2.0020001
-0.68461692 0.013243062 2.0010002
-0.67907381 0.013236444 2
-0.67353606 0.013229826 1.9990001
-0.66733468 0.013209971 1.9960001
-0.66148072 0.013196735 1.9940001
-0.6556372 0.013183499 1.9920001
-0.64915091 0.013157025 1.988
-0.64300942 0.013137171 1.9850001
-0.63688356 0.013117316 1.9820001
-0.63396055 0.013163644 1.9890001
-0.62752372 0.013137171 1.9850001
-0.6217348 0.013123934 1.983
-0.60538453 0.012885679 1.9470001
-0.59877986 0.012852588 1.9420002
-0.59128392 0.012799642 1.9340001
-0.58443582 0.012759932 1.9280001
-0.57371211 0.012634185 1.909
-0.56606644 0.012574622 1.9000001
-0.55758166 0.012495204 1.8880001
-0.55033022 0.012442257 1.8800001
-0.54399067 0.012409166 1.8750001
-0.53681457 0.012356221 1.8670001
-0.5288254 0.01228342 1.8560001
-0.52371663 0.012276802 1.8550001
-0.51917249 0.01228342 1.8560001
-0.5135147 0.012263565 1.853
-0.508147 0.012250329 1.8510001
-0.50414932 0.012270183 1.8540001
-0.49959746 0.012276802 1.8550001
-0.4950403 0.01228342 1.8560001
-0.49021384 0.01228342 1.8560001
-0.48538744 0.01228342 1.8560001
-0.48056099 0.01228342 1.8560001
-0.47445297 0.012250329 1.8510001
-0.46963951 0.012250329 1.8510001
-0.46432382 0.012237092 1.8490001
-0.45901856 0.012223857 1.8470001
-0.4539696 0.012217238 1.8460001
-0.44868255 0.012204002 1.8440001
-0.44051722 0.012111346 1.83
-0.43552029 0.012104728 1.8290001
-0.43005753 0.012084873 1.8260001
-0.42484325 0.012071637 1.8240001
-0.41963938 0.012058401 1.8220001
-0.41490138 0.012058401 1.8220001
-0.41016334 0.012058401 1.8220001
-0.40564781 0.012065019 1.8230001
-0.40156695 0.012084873 1.8260001
-0.39768779 0.012111346 1.83
-0.39378783 0.012137819 1.8340001
-0.3900792 0.012170911 1.8390001
-0.38634452 0.012204002 1.8440001
-0.38258386 0.012237092 1.8490001
-0.3787972 0.012270183 1.8540001
-0.3747828 0.012296656 1.858
-0.37074763 0.01232313 1.8620001
-0.36669162 0.012349602 1.8660001
-0.36242092 0.012369457 1.8690001
-0.35813463 0.012389312 1.8720001
-0.3540214 0.012415784 1.876
-0.3495152 0.012429021 1.8780001
-0.34518206 0.012448875 1.881
-0.34101427 0.012475349 1.8850001
-0.33664736 0.012495204 1.8880001
-0.33244053 0.012521676 1.8920001
-0.3280398 0.012541531 1.8950001
-0.32362348 0.012561386 1.8980001
-0.31935945 0.012587858 1.9020001
-0.31507462 0.012614331 1.9060001
-0.31076896 0.012640804 1.9100001
-0.30628243 0.012660659 1.9130001
-0.30162278 0.012673895 1.9150001
-0.29710761 0.01269375 1.9180001
-0.29242456 0.012706987 1.9200001
-0.28773111 0.012720223 1.9220001
-0.28302726 0.012733459 1.9240001
-0.27831298 0.012746695 1.9260001
-0.27344641 0.012753313 1.927
-0.26871398 0.01276655 1.9290001
-0.26397109 0.012779787 1.9310001
-0.25921783 0.012793023 1.9330001
-0.25458568 0.012812878 1.9360001
-0.24993788 0.012832733 1.9390001
-0.24514821 0.012845969 1.9410001
-0.24059552 0.012872442 1.9450001
-0.23590095 0.012892297 1.9480001
-0.23130926 0.012918769 1.9520001
-0.22658089 0.012938624 1.955
-0.22183689 0.012958478 1.9580001
-0.2170773 0.012978333 1.9610001
-0.21230212 0.012998188 1.9640001
-0.20751131 0.013018043 1.9670001
-0.20260203 0.01303128 1.9690001
-0.19768232 0.013044516 1.9710001
-0.19294761 0.013070988 1.9750001
-0.18781173 0.013070988 1.9750001
-0.18276832 0.013077606 1.9760001
-0.17771974 0.013084225 1.9770001
-0.17266592 0.013090843 1.978
-0.16752222 0.013090843 1.978
-0.16229646 0.013084225 1.9770001
-0.15707587 0.013077606 1.9760001
-0.15186049 0.013070988 1.9750001
-0.1466503 0.01306437 1.9740001
-0.14137363 0.013051135 1.9720001
-0.13610737 0.013037898 1.9700001
-0.13085149 0.013024661 1.9680001
-0.12560603 0.013011425 1.9660001
-0.12037097 0.012998188 1.9640001
-0.11520499 0.01299157 1.9630001
-0.10998814 0.012978333 1.9610001
-0.10483515 0.012971715 1.96
-0.09968739 0.012965097 1.9590001
-0.09454482 0.012958478 1.9580001
-0.089407459 0.012951861 1.9570001
-0.08427529 0.012945242 1.9560001
-0.079148315 0.012938624 1.955
-0.073988661 0.012925387 1.9530001
-0.069298111 0.012998188 1.9640001
-0.064158142 0.01299157 1.9630001
-0.058993287 0.012978333 1.9610001
-0.053838842 0.012965097 1.9590001
-0.048694793 0.012951861 1.9570001
-0.043583427 0.012945242 1.9560001
-0.038437899 0.012925387 1.9530001
-0.033342138 0.012918769 1.9520001
-0.028237097 0.012905532 1.95
-0.023023656 0.012826114 1.9380001
-0.017983984 0.012826114 1.9380001
-0.01293763 0.012819496 1.937
-0.0079005565 0.012819496 1.937
-0.0028620043 0.012812878 1.9360001
0.0021724685 0.012812878 1.9360001
0.007203219 0.012806259 1.9350001
0.012235092 0.012806259 1.9350001
0.017258041 0.012799642 1.9340001
0.022275789 0.012793023 1.9330001
0.027302461 0.012793023 1.9330001
0.032295682 0.012779787 1.9310001
0.037278503 0.01276655 1.9290001
0.042272847 0.012759932 1.9280001
0.047286514 0.012759932 1.9280001
0.052273057 0.012753313 1.927
0.057284124 0.012753313 1.927
0.062359851 0.01276655 1.9290001
0.067445979 0.012779787 1.9310001
0.072542511 0.012793023 1.9330001
0.077689566 0.012812878 1.9360001
0.082809493 0.012826114 1.9380001
0.087939829 0.012839351 1.9400001
0.093032636 0.012845969 1.9410001
0.098130643 0.012852588 1.9420002
0.10323384 0.012859206 1.9430001
0.10828652 0.012859206 1.9430001
0.11328087 0.012852588 1.9420002
0.11827002 0.012845969 1.9410001
0.12325395 0.012839351 1.9400001
0.12823269 0.012832733 1.9390001
0.13320623 0.012826114 1.9380001
0.13817458 0.012819496 1.937
0.14321163 0.012819496 1.937
0.14817218 0.012812878 1.9360001
0.15312754 0.012806259 1.9350001
0.15807766 0.012799642 1.9340001
0.16293825 0.012786405 1.932
0.16787539 0.012779787 1.9310001
0.17262825 0.012759932 1.9280001
0.17745766 0.012746695 1.9260001
0.18227664 0.012733459 1.9240001
0.18708523 0.012720223 1.9220001
0.19188341 0.012706987 1.9200001
0.1966712 0.01269375 1.9180001
0.2014486 0.012680514 1.9160001
0.20621556 0.012667277 1.914
0.21119283 0.012667277 1.914
0.2159442 0.01265404 1.9120001
0.22080074 0.012647423 1.9110001
0.22577021 0.012647423 1.9110001
0.23061891 0.012640804 1.9100001
0.23570913 0.012647423 1.9110001
0.24080451 0.01265404 1.9120001
0.24590512 0.012660659 1.9130001
0.25114208 0.012673895 1.9150001
0.25638944 0.012687132 1.9170001
0.26164719 0.012700369 1.9190001
0.26691535 0.012713605 1.9210001
0.27205235 0.012720223 1.9220001
0.27733871 0.012733459 1.9240001
0.28234202 0.012733459 1.9240001
0.28734526 0.012733459 1.9240001
0.29234853 0.012733459 1.9240001
0.29719722 0.012726841 1.9230001
0.30204076 0.012720223 1.9220001
0.30703881 0.012720223 1.9220001
0.31187454 0.012713605 1.9210001
0.31818962 0.01276655 1.9290001
0.32320589 0.01276655 1.9290001
0.3283923 0.012773168 1.9300001
0.33341119 0.012773168 1.9300001
0.33702722 0.012720223 1.9220001
0.34220323 0.012726841 1.9230001
0.34702334 0.012720223 1.9220001
0.35202143 0.012720223 1.9220001
0.35664797 0.012706987 1.9200001
0.36145249 0.012700369 1.9190001
0.36625183 0.01269375 1.9180001
0.37065881 0.012673895 1.9150001
0.3754425 0.012667277 1.914
0.38022104 0.012660659 1.9130001
0.38499433 0.01265404 1.9120001
0.38996637 0.01265404 1.9120001
0.39576468 0.012680514 1.9160001
0.41308749 0.013070988 1.9750001
0.4451167 0.013911502 2.102
0.5842492 0.017611088 2.661
0.64715344 0.01927888 2.9130001
0.66776472 0.019662738 2.9710002
0.67503589 0.019649502 2.9690001
0.68206674 0.019629646 2.9660001
0.6879192 0.0195767 2.9580002
0.69514102 0.019563464 2.9560001
0.70235246 0.019550228 2.9540002
0.71003419 0.019550228 2.9540002
0.71771592 0.019550228 2.9540002
0.72564322 0.019556846 2.9550002
0.73208666 0.019523755 2.95
0.74903637 0.019768629 2.9870002
0.75756401 0.019788485 2.9900002
0.76508337 0.019781865 2.9890001
0.77647609 0.019874522 3.0030003
0.78062886 0.019781865 2.9890001
0.79209447 0.019874522 3.0030003
0.79990351 0.019874522 3.0030003
0.80744374 0.019867903 3.0020001
0.81117678 0.019768629 2.9870002
0.82058924 0.019808337 2.993
0.82754219 0.019788485 2.9900002
0.83419991 0.019762011 2.9860001
0.84055507 0.019728919 2.9810002
0.84688419 0.019695828 2.9760001
0.85318726 0.019662738 2.9710002
0.85917455 0.019623028 2.9650002
0.86483836 0.0195767 2.9580002
0.87046564 0.019530375 2.9510002
0.87665164 0.019497283 2.9460001
0.87740862 0.019345064 2.9230001
0.8837986 0.01931859 2.9190001
0.8907786 0.019305354 2.9170001
0.89805615 0.019298736 2.9160001
0.90563905 0.019298736 2.9160001
0.91290879 0.019292118 2.9150002
0.92017335 0.019285498 2.914
0.927751 0.019285498 2.914
0.93500775 0.01927888 2.9130001
0.94258291 0.01927888 2.9130001
0.950158 0.01927888 2.9130001
0.95806187 0.019285498 2.914
0.96663368 0.019305354 2.9170001
0.97789305 0.019378155 2.9280002
0.98618031 0.01939139 2.9300001
0.99515635 0.019417865 2.9340003
1.0041533 0.019444337 2.9380002
1.0131708 0.019470809 2.9420002
1.0218623 0.019490665 2.9450002
1.0305694 0.019510519 2.9480002
1.0382355 0.019510519 2.9480002
1.0455468 0.019503899 2.947
1.048207 0.019411245 2.9330001
1.0572741 0.019437717 2.937
1.064549 0.019431099 2.9360001
1.0714537 0.019417865 2.9340003
1.0787156 0.019411245 2.9330001
1.0852314 0.01939139 2.9300001
1.089121 0.019325208 2.9200001
