# .PCD v0.7 - Point Cloud Data file format
VERSION 0.7
FIELDS x y z
SIZE 4 4 4
TYPE F F F
COUNT 1 1 1
WIDTH 1521
HEIGHT 1
VIEWPOINT 0 0 0 1 0 0 0
POINTS 1521
DATA ascii
-0.15470804 0.24997659 2.158
-0.083626881 0.17271321 1.4910001
-0.080017038 0.1732924 1.4960001
-0.076075882 0.17317656 1.4950001
-0.072188206 0.17317656 1.4950001
-0.068346217 0.1732924 1.4960001
-0.064499035 0.17340824 1.4970001
-0.060606152 0.17340824 1.4970001
-0.04129171 0.24302636 2.098
-0.035938453 0.2437214 2.1040001
-0.030539509 0.24430059 2.1090002
-0.025043275 0.24418473 2.108
-0.019635765 0.24511145 2.1160002
-0.014159926 0.24557479 2.1200001
-0.0086673629 0.24615395 2.125
-0.0031458396 0.24650148 2.128
0.0023901642 0.24673316 2.1300001
0.0079328474 0.24684899 2.131
0.013474409 0.24684899 2.131
0.018998124 0.24661733 2.1290002
0.024499912 0.24626981 2.1260002
0.029986097 0.2459223 2.1230001
0.035423227 0.2453431 2.118
0.04087301 0.24499559 2.115
0.046263333 0.24441642 2.1100001
0.051676705 0.24406891 2.1070001
0.057074476 0.2437214 2.1040001
0.062486365 0.2434897 2.102
0.067920186 0.24337387 2.1010001
0.073313892 0.24314222 2.0990002
0.078772239 0.24314222 2.0990002
0.084230579 0.24314222 2.0990002
0.089688927 0.24314222 2.0990002
0.095101938 0.24302636 2.098
0.10055768 0.24302636 2.098
0.1059629 0.24291053 2.0970001
0.11141605 0.24291053 2.0970001
0.11681347 0.24279471 2.0960002
0.12226401 0.24279471 2.0960002
0.12759268 0.24256302 2.0940001
0.13303803 0.24256302 2.0940001
0.13841724 0.24244718 2.0930002
0.14379124 0.24233133 2.092
0.14916006 0.2422155 2.0910001
0.1545976 0.2422155 2.0910001
0.15988207 0.24198382 2.089
0.16523528 0.24186799 2.0880001
0.17058329 0.24175216 2.0870001
0.1759261 0.24163634 2.0860002
0.18135063 0.24163634 2.0860002
0.18677518 0.24163634 2.0860002
0.19219974 0.24163634 2.0860002
0.19781372 0.24186799 2.0880001
0.2033408 0.24198382 2.089
0.20907296 0.24233133 2.092
0.21461566 0.24244718 2.0930002
0.22016354 0.24256302 2.0940001
0.22582437 0.24279471 2.0960002
0.23127492 0.24279471 2.0960002
0.2366125 0.24267885 2.095
0.24206045 0.24267885 2.095
0.24727213 0.24244718 2.0930002
0.25235263 0.24209967 2.0900002
0.25754088 0.24186799 2.0880001
0.26271874 0.24163634 2.0860002
0.26840034 0.24186799 2.0880001
0.27369899 0.24175216 2.0870001
0.27899238 0.24163634 2.0860002
0.28441691 0.24163634 2.0860002
0.2897025 0.24152048 2.085
0.29512444 0.24152048 2.085
0.30040222 0.24140465 2.0840001
0.3058216 0.24140465 2.0840001
0.31109157 0.24128883 2.0830002
0.3159005 0.24082544 2.079
0.32115227 0.24070962 2.0780001
0.32655603 0.24070962 2.0780001
0.3316403 0.24047796 2.0760002
0.33655176 0.24013045 2.0730002
0.34161261 0.23989876 2.0710001
0.346663 0.23966707 2.069
0.35170305 0.23943542 2.0670002
0.3567327 0.23920374 2.0650001
0.36175194 0.23897208 2.0630002
0.36711666 0.23897208 2.0630002
0.37284246 0.23920374 2.0650001
0.37857872 0.23943542 2.0670002
0.38432533 0.23966707 2.069
0.39027074 0.2400146 2.072
0.39642274 0.24047796 2.0760002
0.40395036 0.24175216 2.0870001
0.41271213 0.2437214 2.1040001
-0.4985415 0.18677612 1.577
-0.49193239 0.18582863 1.5690001
-0.48629761 0.18523644 1.5640001
-0.48068884 0.18464424 1.559
-0.47510606 0.18405205 1.554
-0.4701556 0.18369675 1.5510001
-0.46522072 0.18334143 1.5480001
-0.46089727 0.18322299 1.5470001
-0.45657906 0.18310456 1.5460001
-0.45285147 0.18322299 1.5470001
-0.44940883 0.18345986 1.549
-0.44566825 0.1835783 1.5500001
-0.44249237 0.18393362 1.5530001
-0.43901849 0.1841705 1.5550001
-0.43581396 0.1845258 1.5580001
-0.43259388 0.18488112 1.5610001
-0.42935815 0.18523644 1.5640001
-0.42583486 0.18547331 1.5660001
-0.42230123 0.18571018 1.5680001
-0.41875714 0.18594706 1.5700001
-0.41546679 0.18630236 1.5730001
-0.41189936 0.18653925 1.575
-0.40858042 0.18689455 1.5780001
-0.4052459 0.18724987 1.5810001
-0.40189573 0.18760519 1.5840001
-0.39878109 0.18807894 1.5880001
-0.39539716 0.18843424 1.5910001
-0.39248943 0.18902643 1.5960001
-0.38955572 0.18961862 1.6010001
-0.38659599 0.1902108 1.6060001
-0.3838484 0.19092144 1.6120001
-0.38083407 0.19151363 1.6170001
-0.3780266 0.19222425 1.623
-0.37541834 0.19305332 1.6300001
-0.37209046 0.19352706 1.6340001
-0.37099296 0.1951852 1.6480001
-0.37382793 0.19897519 1.6800001
-0.4306573 0.2528643 2.135
-0.42630002 0.25357494 2.141
-0.42151853 0.25404871 2.1450002
-0.41613448 0.25416714 2.1460001
-0.4109365 0.25440398 2.148
-0.40553945 0.25452244 2.1490002
-0.3999511 0.25452244 2.1490002
-0.39436275 0.25452244 2.1490002
-0.38877437 0.25452244 2.1490002
-0.38318598 0.25452244 2.1490002
-0.37759763 0.25452244 2.1490002
-0.3718361 0.25440398 2.148
-0.36625034 0.25440398 2.148
-0.3604967 0.25428554 2.1470001
-0.35458294 0.25404871 2.1450002
-0.34851682 0.25369337 2.1420002
-0.34214613 0.25310117 2.1370001
-0.33580145 0.252509 2.1320002
-0.32932785 0.25179839 2.1260002
-0.32303774 0.25120619 2.1210001
-0.31677371 0.25061402 2.1160002
-0.31053561 0.25002182 2.1110001
-0.30461255 0.24966648 2.108
-0.29884702 0.24942963 2.1060002
-0.29337049 0.24942963 2.1060002
-0.28775719 0.24931118 2.105
-0.28255147 0.24954806 2.1070001
-0.27746683 0.24990338 2.1100001
-0.27223763 0.25014022 2.112
-0.26712438 0.25049555 2.115
-0.26187184 0.25073242 2.1170001
-0.25672999 0.25108775 2.1200001
-0.25157252 0.25144306 2.1230001
-0.24651536 0.2519168 2.1270001
-0.2415507 0.252509 2.1320002
-0.23644932 0.25298277 2.1360002
-0.23132715 0.2534565 2.1400001
-0.22639516 0.25416714 2.1460001
-0.22153486 0.25499618 2.1530001
-0.21653786 0.25570682 2.1590002
-0.21199812 0.25700963 2.1700001
-0.20645024 0.25712806 2.171
-0.20080467 0.25712806 2.171
-0.19533889 0.25736493 2.1730001
-0.18960081 0.25724652 2.1720002
-0.18395263 0.25724652 2.1720002
-0.17814027 0.25700963 2.1700001
-0.17241779 0.25689119 2.1690001
-0.16662364 0.25665432 2.1670001
-0.16083989 0.25641745 2.1650002
-0.15528159 0.25653589 2.1660001
-0.087445468 0.17647205 1.4900001
-0.083963409 0.17730111 1.4970001
-0.079910062 0.17694581 1.4940001
-0.075974107 0.17682736 1.493
-0.072091632 0.17682736 1.493
-0.068209156 0.17682736 1.493
-0.064326689 0.17682736 1.493
-0.060484696 0.17694581 1.4940001
-0.057963472 0.18120955 1.5300001
-0.041311394 0.24860057 2.0990002
-0.035955533 0.24931118 2.105
-0.030553987 0.24990338 2.1100001
-0.025078915 0.25002182 2.1110001
-0.019654322 0.25085086 2.118
-0.014179964 0.25144306 2.1230001
-0.008671442 0.25179839 2.1260002
-0.0031487963 0.25227213 2.1300001
0.0023924087 0.252509 2.1320002
0.0079402924 0.25262743 2.1330001
0.013480732 0.252509 2.1320002
0.019007046 0.25227213 2.1300001
0.024522958 0.25203523 2.128
0.030000221 0.25156149 2.1240001
0.03545668 0.25108775 2.1200001
0.04091166 0.25073242 2.1170001
0.046329111 0.25025868 2.1130002
0.051774807 0.25002182 2.1110001
0.057182983 0.24966648 2.108
0.062635005 0.24954806 2.1070001
0.068081826 0.24942963 2.1060002
0.073523454 0.24931118 2.105
0.078997396 0.24931118 2.105
0.084511481 0.24942963 2.1060002
0.08998803 0.24942963 2.1060002
0.095419243 0.24931118 2.105
0.1008932 0.24931118 2.105
0.10631662 0.24919274 2.1040001
0.11173484 0.24907431 2.1030002
0.11714784 0.24895586 2.102
0.12255566 0.24883743 2.1010001
0.12795828 0.24871899 2.1000001
0.13341923 0.24871899 2.1000001
0.1387479 0.24848211 2.098
0.14413492 0.24836369 2.0970001
0.14958808 0.24836369 2.0970001
0.15496728 0.24824525 2.0960002
0.16034128 0.2481268 2.095
0.16571011 0.24800837 2.0940001
0.17115544 0.24800837 2.0940001
0.17651646 0.24788994 2.0930002
0.18187225 0.24777149 2.092
0.18731239 0.24777149 2.092
0.19275254 0.24777149 2.092
0.19838215 0.24800837 2.0940001
0.20392483 0.2481268 2.095
0.20957266 0.24836369 2.0970001
0.21502581 0.24836369 2.0970001
0.22058409 0.24848211 2.098
0.22614759 0.24860057 2.0990002
0.23149559 0.24848211 2.098
0.23695132 0.24848211 2.098
0.24217601 0.24824525 2.0960002
0.24750841 0.2481268 2.095
0.25259411 0.24777149 2.092
0.25778759 0.24753462 2.0900002
0.26297063 0.24729773 2.0880001
0.2681433 0.24706088 2.0860002
0.27409241 0.24753462 2.0900002
0.27939358 0.24741617 2.089
0.28482592 0.24741617 2.089
0.29025829 0.24741617 2.089
0.29569063 0.24741617 2.089
0.30097881 0.24729773 2.0880001
0.30640858 0.24729773 2.0880001
0.3118383 0.24729773 2.0880001
0.31666026 0.246824 2.0840001
0.32207957 0.246824 2.0840001
0.32734179 0.24670556 2.0830002
0.33259875 0.24658711 2.082
0.33768821 0.24635024 2.0800002
0.34276724 0.24611336 2.0780001
0.34766832 0.24575804 2.075
0.35272399 0.24552119 2.0730002
0.35776922 0.2452843 2.0710001
0.36297938 0.24516587 2.0700002
0.36818433 0.24504742 2.069
0.37374523 0.24516587 2.0700002
0.37931135 0.2452843 2.0710001
0.38543987 0.24575804 2.075
0.39158919 0.24623179 2.079
0.39775941 0.24670556 2.0830002
0.4049181 0.24777149 2.092
0.4133006 0.24954806 2.1070001
-0.49727699 0.19039287 1.5730001
-0.49130529 0.18966664 1.567
-0.48567572 0.18906145 1.562
-0.4800722 0.18845625 1.557
-0.47449461 0.18785107 1.552
-0.4695493 0.18748796 1.549
-0.46461967 0.18712485 1.5460001
-0.46030143 0.18700381 1.5450001
-0.45628369 0.18700381 1.5450001
-0.45255879 0.18712485 1.5460001
-0.4491187 0.18736692 1.5480001
-0.44538072 0.18748796 1.549
-0.44220743 0.18785107 1.552
-0.43901849 0.18821418 1.5550001
-0.43581396 0.18857731 1.5580001
-0.43259388 0.18894042 1.5610001
-0.42935815 0.18930353 1.5640001
-0.42583486 0.18954562 1.5660001
-0.42230123 0.18978769 1.5680001
-0.41902387 0.1901508 1.5710001
-0.41546679 0.19039287 1.5730001
-0.4121609 0.19075599 1.5760001
-0.40858042 0.19099806 1.5780001
-0.4052459 0.19136117 1.5810001
-0.40189573 0.1917243 1.5840001
-0.39878109 0.19220844 1.5880001
-0.39564568 0.19269261 1.5920001
-0.39248943 0.19317675 1.5960001
-0.38979906 0.19390298 1.6020001
-0.38683671 0.19450817 1.6070001
-0.3838484 0.19511336 1.6120001
-0.38106957 0.19583958 1.618
-0.3780266 0.19644476 1.623
-0.37518799 0.197171 1.6290001
-0.37209046 0.1977762 1.6340001
-0.37121806 0.19959176 1.649
-0.37471804 0.20382811 1.6840001
-0.4318676 0.25914249 2.141
-0.42709649 0.25962666 2.1450002
-0.42250109 0.26023182 2.1500001
-0.41729796 0.26047391 2.1520002
-0.4120844 0.26071599 2.154
-0.40667173 0.26083705 2.1550002
-0.40125388 0.26095808 2.1560001
-0.39564732 0.26095808 2.1560001
-0.38985983 0.26083705 2.1550002
-0.38425586 0.26083705 2.1550002
-0.37865189 0.26083705 2.1550002
-0.37304789 0.26083705 2.1550002
-0.36727339 0.26071599 2.154
-0.36150414 0.26059496 2.1530001
-0.35557476 0.26035285 2.151
-0.34933034 0.25986871 2.1470001
-0.34294668 0.25926355 2.1420002
-0.33658898 0.25865835 2.1370001
-0.33010235 0.2579321 2.131
-0.32379931 0.25732693 2.1260002
-0.31737253 0.25660071 2.1200001
-0.31127113 0.25611654 2.1160002
-0.30519056 0.25563237 2.112
-0.29941463 0.25539032 2.1100001
-0.29378837 0.25526929 2.1090002
-0.288304 0.25526929 2.1090002
-0.28308785 0.25551134 2.1110001
-0.27786133 0.25575343 2.1130002
-0.27262434 0.25599548 2.115
-0.26737699 0.25623757 2.1170001
-0.26211926 0.25647968 2.1190002
-0.25697219 0.25684279 2.1220002
-0.25180951 0.25720587 2.125
-0.24686307 0.25781107 2.1300001
-0.24189058 0.25841627 2.135
-0.23678142 0.25890043 2.1390002
-0.23175953 0.2595056 2.1440001
-0.22671165 0.2601108 2.1490002
-0.22215225 0.26132119 2.1590002
-0.21663816 0.26144221 2.1600001
-0.21209581 0.26277363 2.171
-0.20683064 0.2632578 2.1750002
-0.20117465 0.2632578 2.1750002
-0.19560857 0.26337883 2.1760001
-0.18994997 0.26337883 2.1760001
-0.18420671 0.2632578 2.1750002
-0.17838654 0.26301572 2.1730001
-0.17257677 0.26277363 2.171
-0.16677743 0.26253155 2.1690001
-0.16098845 0.26228946 2.1670001
-0.15528159 0.26216844 2.1660001
-0.087386772 0.18022567 1.4890001
-0.083570793 0.18034673 1.4900001
-0.079803094 0.1805888 1.4920001
-0.075821444 0.18034673 1.4900001
-0.071946777 0.18034673 1.4900001
-0.068072103 0.18034673 1.4900001
-0.064240515 0.18046775 1.4910001
-0.060363241 0.18046775 1.4910001
-0.057660393 0.18421993 1.5220001
-0.041311394 0.2540589 2.0990002
-0.035989698 0.2550272 2.1070001
-0.030582946 0.25563237 2.112
-0.025114555 0.25587445 2.1140001
-0.019672882 0.25660071 2.1200001
-0.014193321 0.25720587 2.125
-0.0086795986 0.25756899 2.128
-0.0031502745 0.2579321 2.131
0.0023935307 0.25817418 2.1330001
0.0079402924 0.25817418 2.1330001
0.013487055 0.25817418 2.1330001
0.019015968 0.2579321 2.131
0.024522958 0.25756899 2.128
0.030014344 0.25720587 2.125
0.035490129 0.25684279 2.1220002
0.040950313 0.25647968 2.1190002
0.046394888 0.25611654 2.1160002
0.051848389 0.25587445 2.1140001
0.057291485 0.25563237 2.112
0.062753916 0.25551134 2.1110001
0.068243466 0.25551134 2.1110001
0.073733024 0.25551134 2.1110001
0.079222575 0.25551134 2.1110001
0.084792383 0.25575343 2.1130002
0.090287134 0.25575343 2.1130002
0.095736548 0.25563237 2.112
0.10122871 0.25563237 2.112
0.10661981 0.25539032 2.1100001
0.11205363 0.25526929 2.1090002
0.11753798 0.25526929 2.1090002
0.12296399 0.25514823 2.108
0.12832388 0.25490618 2.1060002
0.13373689 0.25478512 2.105
0.1391447 0.25466409 2.1040001
0.14461605 0.25466409 2.1040001
0.15001608 0.25454307 2.1030002
0.15541087 0.25442201 2.102
0.16087703 0.25442201 2.102
0.16634318 0.25442201 2.102
0.17172758 0.25430095 2.1010001
0.17710681 0.25417992 2.1000001
0.18239386 0.25393784 2.098
0.18776008 0.25381681 2.0970001
0.19339752 0.2540589 2.0990002
0.19895059 0.25417992 2.1000001
0.20441155 0.25417992 2.1000001
0.20997241 0.25430095 2.1010001
0.21543597 0.25430095 2.1010001
0.22100465 0.25442201 2.102
0.22636306 0.25430095 2.1010001
0.23171629 0.25417992 2.1000001
0.23717722 0.25417992 2.1000001
0.24240708 0.25393784 2.098
0.24762656 0.25369579 2.0960002
0.25295633 0.25357473 2.095
0.25815761 0.25333267 2.0930002
0.26334846 0.25309059 2.0910001
0.26852888 0.25284851 2.089
0.27396125 0.25284851 2.089
0.27979481 0.25321162 2.092
0.28523496 0.25321162 2.092
0.29067513 0.25321162 2.092
0.29611525 0.25321162 2.092
0.3015554 0.25321162 2.092
0.30699554 0.25321162 2.092
0.3118383 0.25272748 2.0880001
0.31741998 0.25284851 2.089
0.32285231 0.25284851 2.089
0.32812753 0.25272748 2.0880001
0.33339754 0.25260645 2.0870001
0.33849993 0.25236437 2.085
0.34359202 0.25212228 2.0830002
0.34850609 0.25175917 2.0800002
0.35357472 0.25151709 2.0780001
0.35863298 0.25127503 2.0760002
0.36385614 0.25115398 2.075
0.36907411 0.25103295 2.0740001
0.37464797 0.25115398 2.075
0.38041025 0.25139606 2.0770001
0.38655439 0.2518802 2.0810001
0.39271933 0.25236437 2.085
0.3990961 0.25296956 2.0900002
0.40549877 0.25357473 2.095
0.41349676 0.25514823 2.108
-0.49601248 0.19398884 1.5690001
-0.49005118 0.19324701 1.5630001
-0.48443201 0.19262882 1.5580001
-0.4791472 0.19213425 1.554
-0.47357741 0.19151606 1.549
-0.46863994 0.19114515 1.5460001
-0.46401858 0.19089787 1.544
-0.45970556 0.19077423 1.5430001
-0.45598835 0.19089787 1.544
-0.45197329 0.19089787 1.544
-0.44853845 0.19114515 1.5460001
-0.44509321 0.19139242 1.5480001
-0.44220743 0.19188698 1.552
-0.43901849 0.1922579 1.5550001
-0.43553424 0.19250517 1.557
-0.43231675 0.19287609 1.5600001
-0.42935815 0.19337064 1.5640001
-0.42583486 0.19361793 1.5660001
-0.42230123 0.19386519 1.5680001
-0.41902387 0.19423611 1.5710001
-0.41546679 0.19448338 1.5730001
-0.4121609 0.1948543 1.5760001
-0.40883934 0.19522522 1.5790001
-0.4055022 0.19559613 1.582
-0.40214944 0.19596705 1.585
-0.39903221 0.1964616 1.5890001
-0.39589417 0.19695616 1.5930001
-0.39273536 0.19745071 1.5970001
-0.38979906 0.1980689 1.6020001
-0.38683671 0.19868711 1.6070001
-0.38408649 0.19942892 1.613
-0.38106957 0.20004712 1.618
-0.3780266 0.20066531 1.623
-0.37495768 0.2012835 1.628
-0.37209046 0.20202534 1.6340001
-0.36896691 0.20264353 1.6390001
-0.43069282 0.26062998 2.108
-0.43247274 0.26508099 2.1440001
-0.42809203 0.2658228 2.1500001
-0.42348367 0.26644102 2.1550002
-0.41846138 0.26681191 2.158
-0.41342357 0.26718283 2.161
-0.40780395 0.26718283 2.161
-0.40237054 0.26730648 2.1620002
-0.39656484 0.26718283 2.161
-0.39094523 0.26718283 2.161
-0.38532567 0.26718283 2.161
-0.3795304 0.26705921 2.1600001
-0.37391341 0.26705921 2.1600001
-0.36812595 0.26693556 2.1590002
-0.36234367 0.26681191 2.158
-0.35623601 0.26644102 2.1550002
-0.35014388 0.2660701 2.1520002
-0.3437472 0.26545188 2.1470001
-0.33737651 0.26483372 2.1420002
-0.33087689 0.26409188 2.1360002
-0.3244085 0.26335004 2.1300001
-0.31797132 0.2626082 2.1240001
-0.31185955 0.26211366 2.1200001
-0.30576858 0.26161912 2.1160002
-0.29984033 0.2612482 2.1130002
-0.29434559 0.2612482 2.1130002
-0.28885081 0.2612482 2.1130002
-0.28349015 0.26137182 2.1140001
-0.27825582 0.26161912 2.1160002
-0.27301103 0.26186636 2.118
-0.2677559 0.26211366 2.1200001
-0.26261404 0.26248458 2.1230001
-0.25733548 0.26273185 2.125
-0.25216502 0.26310274 2.128
-0.24709487 0.26359734 2.1320002
-0.24211718 0.2642155 2.1370001
-0.23700279 0.26471007 2.141
-0.23208383 0.26545188 2.1470001
-0.22702815 0.2660701 2.1520002
-0.22235803 0.26718283 2.161
-0.21734022 0.26792467 2.1670001
-0.2123889 0.26879013 2.174
-0.20702082 0.26916105 2.177
-0.20154463 0.26940835 2.1790001
-0.19596814 0.26953197 2.1800001
-0.19021186 0.26940835 2.1790001
-0.18437608 0.26916105 2.177
-0.17846863 0.26879013 2.174
-0.17265627 0.26854286 2.1720002
-0.16677743 0.26817194 2.1690001
-0.16098845 0.26792467 2.1670001
-0.15535326 0.26792467 2.1670001
-0.087328084 0.1839741 1.488
-0.083458617 0.1839741 1.488
-0.079642631 0.18409775 1.4890001
-0.075770557 0.18409775 1.4890001
-0.071850203 0.1839741 1.488
-0.067980729 0.1839741 1.488
-0.064111263 0.1839741 1.488
-0.060241785 0.1839741 1.488
-0.057774048 0.18854874 1.5250001
-0.036040939 0.26087728 2.1100001
-0.030626388 0.26149544 2.115
-0.025150197 0.26174274 2.1170001
-0.019700721 0.26248458 2.1230001
-0.014200001 0.2628555 2.1260002
-0.008687757 0.26335004 2.1300001
-0.0031547095 0.26384458 2.1340001
0.0023957747 0.26396823 2.135
0.0079477374 0.26396823 2.135
0.013493378 0.26384458 2.1340001
0.019024894 0.26359734 2.1320002
0.024534484 0.26322642 2.1290002
0.03002847 0.2628555 2.1260002
0.035490129 0.26236096 2.1220002
0.040969636 0.26211366 2.1200001
0.046438739 0.26186636 2.118
0.051921967 0.26174274 2.1170001
0.057372868 0.26149544 2.115
0.06287282 0.26149544 2.115
0.068372771 0.26149544 2.115
0.073942594 0.26174274 2.1170001
0.079447746 0.26174274 2.1170001
0.085033156 0.26199004 2.1190002
0.090543516 0.26199004 2.1190002
0.096053869 0.26199004 2.1190002
0.10151629 0.26186636 2.118
0.10702404 0.26186636 2.118
0.11247867 0.26174274 2.1170001
0.11787236 0.26149544 2.115
0.12325565 0.2612482 2.1130002
0.12868947 0.26112452 2.112
0.13405456 0.26087728 2.1100001
0.13954151 0.26087728 2.1100001
0.14495973 0.26075363 2.1090002
0.15044409 0.26075363 2.1090002
0.15592843 0.26075363 2.1090002
0.16141279 0.26075363 2.1090002
0.16689715 0.26075363 2.1090002
0.17221801 0.26050636 2.1070001
0.17769717 0.26050636 2.1070001
0.18291549 0.26013544 2.1040001
0.18829732 0.26001182 2.1030002
0.19385821 0.26013544 2.1040001
0.19942427 0.26025906 2.105
0.20489822 0.26025906 2.105
0.21037216 0.26025906 2.105
0.21584612 0.26025906 2.105
0.22132008 0.26025906 2.105
0.22679402 0.26025906 2.105
0.23215765 0.26013544 2.1040001
0.23740308 0.25988814 2.102
0.24275371 0.25976452 2.1010001
0.247981 0.25951725 2.0990002
0.25319782 0.25926998 2.0970001
0.25840428 0.25902268 2.095
0.26360035 0.25877541 2.0930002
0.26891452 0.25865176 2.092
0.2743547 0.25865176 2.092
0.27966109 0.25852814 2.0910001
0.28509861 0.25852814 2.0910001
0.29109195 0.25902268 2.095
0.2965399 0.25902268 2.095
0.30141124 0.25852814 2.0910001
0.30699554 0.25865176 2.092
0.31258506 0.25877541 2.0930002
0.31802779 0.25877541 2.0930002
0.32362506 0.25889906 2.0940001
0.3289133 0.25877541 2.0930002
0.33403653 0.25852814 2.0910001
0.33931172 0.25840449 2.0900002
0.34441677 0.25815722 2.0880001
0.34951141 0.25790995 2.0860002
0.35459563 0.25766268 2.0840001
0.35966948 0.25741538 2.082
0.36473292 0.25716811 2.0800002
0.37014183 0.25716811 2.0800002
0.37555078 0.25716811 2.0800002
0.38132602 0.25741538 2.082
0.38748321 0.25790995 2.0860002
0.39366114 0.25840449 2.0900002
0.40005085 0.25902268 2.095
0.40666014 0.25976452 2.1010001
0.41467369 0.26137182 2.1140001
-0.49977386 0.19794269 1.5680001
-0.49474791 0.19756398 1.5650001
-0.48911059 0.19693278 1.5600001
-0.4834992 0.19630158 1.5550001
-0.47822222 0.19579664 1.5510001
-0.47296596 0.19529167 1.5470001
-0.46803364 0.19491296 1.544
-0.46371809 0.19478673 1.5430001
-0.45910972 0.19453424 1.5410001
-0.45510241 0.19453424 1.5410001
-0.45138785 0.19466048 1.5420001
-0.44795817 0.19491296 1.544
-0.44480565 0.19529167 1.5470001
-0.44163758 0.1956704 1.5500001
-0.43845385 0.19604911 1.5530001
-0.43525451 0.19642784 1.5560001
-0.43231675 0.19693278 1.5600001
-0.42908362 0.19731151 1.5630001
-0.42556292 0.19756398 1.5650001
-0.42230123 0.19794269 1.5680001
-0.41902387 0.19832142 1.5710001
-0.41546679 0.19857389 1.5730001
-0.4121609 0.19895262 1.5760001
-0.40883934 0.19933133 1.5790001
-0.40575853 0.19983628 1.5830001
-0.40240318 0.200215 1.5860001
-0.39928332 0.20071995 1.59
-0.39614272 0.20122491 1.5940001
-0.39298126 0.20172986 1.598
-0.39004236 0.20236105 1.603
-0.38707742 0.20299225 1.608
-0.38432461 0.20374969 1.6140001
-0.3813051 0.20438088 1.6190001
-0.3780266 0.20488583 1.623
-0.37472737 0.2053908 1.6270001
-0.37209046 0.20627446 1.6340001
-0.36896691 0.20690566 1.6390001
-0.37405047 0.2122077 1.6810001
-0.43294027 0.26750037 2.1190002
-0.4326745 0.27078259 2.1450002
-0.42908761 0.27204499 2.1550002
-0.42466268 0.27280238 2.161
-0.41962487 0.27318111 2.164
-0.41438013 0.2734336 2.1660001
-0.40893623 0.27355984 2.1670001
-0.40348721 0.27368608 2.1680002
-0.39784944 0.27368608 2.1680002
-0.39203072 0.27355984 2.1670001
-0.38621724 0.2734336 2.1660001
-0.38058466 0.2734336 2.1660001
-0.37477899 0.27330735 2.1650002
-0.36897847 0.27318111 2.164
-0.36301532 0.27292866 2.1620002
-0.35706252 0.27267617 2.1600001
-0.3507947 0.2721712 2.1560001
-0.34438759 0.27153999 2.151
-0.33784905 0.27078259 2.1450002
-0.33134162 0.27002516 2.1390002
-0.32486543 0.26926771 2.1330001
-0.31857014 0.26863649 2.128
-0.31244794 0.26813155 2.1240001
-0.30620211 0.26750037 2.1190002
-0.30040795 0.26724789 2.1170001
-0.29476351 0.26712164 2.1160002
-0.28926092 0.26712164 2.1160002
-0.28389248 0.26724789 2.1170001
-0.27865034 0.26750037 2.1190002
-0.27339774 0.26775283 2.1210001
-0.2681348 0.26800531 2.1230001
-0.26286143 0.2682578 2.125
-0.25769877 0.26863649 2.128
-0.2525205 0.26901522 2.131
-0.24744254 0.26952016 2.135
-0.24234378 0.27002516 2.1390002
-0.23733489 0.27065632 2.1440001
-0.23230003 0.27128753 2.1490002
-0.22734463 0.27204499 2.1550002
-0.22235803 0.27280238 2.161
-0.21744053 0.27368608 2.1680002
-0.21268199 0.27482221 2.177
-0.20721102 0.27507469 2.1790001
-0.2017296 0.27532718 2.181
-0.19605802 0.27532718 2.181
-0.19029915 0.27520093 2.1800001
-0.18437608 0.27482221 2.177
-0.17846863 0.27444351 2.174
-0.17257677 0.27406478 2.171
-0.16670054 0.27368608 2.1680002
-0.16091417 0.2734336 2.1660001
-0.15341763 0.27015138 2.1400001
-0.087269403 0.18771735 1.4870001
-0.083402529 0.18771735 1.4870001
-0.079535656 0.18771735 1.4870001
-0.075668789 0.18771735 1.4870001
-0.071801916 0.18771735 1.4870001
-0.067889355 0.18759109 1.4860001
-0.064068176 0.18771735 1.4870001
-0.060201302 0.18771735 1.4870001
-0.056296546 0.18759109 1.4860001
-0.0360751 0.26661667 2.112
-0.030640872 0.26712164 2.1160002
-0.025185836 0.26762661 2.1200001
-0.01971928 0.2682578 2.125
-0.014220039 0.26876277 2.1290002
-0.0086959144 0.2691415 2.1320002
-0.0031561875 0.26952016 2.135
0.0023968972 0.26964644 2.1360002
0.0079514608 0.26964644 2.1360002
0.013493378 0.26939395 2.1340001
0.019024894 0.2691415 2.1320002
0.024534484 0.26876277 2.1290002
0.03002847 0.26838404 2.1260002
0.035506852 0.26800531 2.1230001
0.04100829 0.2678791 2.1220002
0.046482593 0.26762661 2.1200001
0.051971022 0.26750037 2.1190002
0.057454247 0.26737413 2.118
0.062991731 0.26750037 2.1190002
0.068534411 0.26762661 2.1200001
0.0740823 0.26775283 2.1210001
0.079635389 0.2678791 2.1220002
0.085273921 0.2682578 2.125
0.090799883 0.2682578 2.125
0.096325837 0.2682578 2.125
0.10180388 0.26813155 2.1240001
0.10732723 0.26813155 2.1240001
0.11274433 0.2678791 2.1220002
0.11820675 0.26775283 2.1210001
0.12360565 0.26750037 2.1190002
0.12899414 0.26724789 2.1170001
0.13443576 0.26712164 2.1160002
0.13987216 0.2669954 2.115
0.1453034 0.26686916 2.1140001
0.15087208 0.2669954 2.115
0.1562981 0.26686916 2.1140001
0.16187198 0.2669954 2.115
0.16729282 0.26686916 2.1140001
0.17279015 0.26686916 2.1140001
0.1782032 0.26674294 2.1130002
0.18378486 0.26686916 2.1140001
0.1891927 0.26674294 2.1130002
0.19450317 0.26649046 2.1110001
0.19989797 0.26636422 2.1100001
0.20538494 0.26636422 2.1100001
0.21087188 0.26636422 2.1100001
0.21625631 0.26623797 2.1090002
0.22163551 0.26611173 2.108
0.22700951 0.26598549 2.1070001
0.23237833 0.26585928 2.1060002
0.23762898 0.26560679 2.1040001
0.2429848 0.26548055 2.1030002
0.24821725 0.26522806 2.1010001
0.25343934 0.26497561 2.0990002
0.25865099 0.26472312 2.0970001
0.26410413 0.26472312 2.0970001
0.26930016 0.26447061 2.095
0.27474812 0.26447061 2.095
0.28019607 0.26447061 2.095
0.28564399 0.26447061 2.095
0.29109195 0.26447061 2.095
0.29639837 0.26434439 2.0940001
0.30198783 0.26447061 2.095
0.30758256 0.26459688 2.0960002
0.3130331 0.26459688 2.0960002
0.31863558 0.26472312 2.0970001
0.32424325 0.26484933 2.098
0.32954189 0.26472312 2.0970001
0.33483529 0.26459688 2.0960002
0.33996111 0.26434439 2.0940001
0.34524152 0.26421815 2.0930002
0.35034916 0.26396567 2.0910001
0.35544637 0.26371318 2.089
0.36053324 0.26346073 2.0870001
0.36560965 0.26320824 2.085
0.37103158 0.26320824 2.085
0.37663409 0.26333448 2.0860002
0.38242495 0.26358694 2.0880001
0.38841194 0.26396567 2.0910001
0.39460289 0.26447061 2.095
0.40100566 0.26510182 2.1000001
0.40762794 0.26585928 2.1060002
0.41408521 0.26649046 2.1110001
-0.49881765 0.20163368 1.5650001
-0.49316725 0.20098947 1.5600001
-0.48754293 0.20034528 1.5550001
-0.48225549 0.19982994 1.5510001
-0.47698888 0.19931456 1.5470001
-0.47174305 0.19879921 1.5430001
-0.46712428 0.19854154 1.5410001
-0.46251592 0.19828385 1.539
-0.45851383 0.19828385 1.539
-0.4545117 0.19828385 1.539
-0.45080239 0.19841269 1.5400001
-0.44766808 0.19879921 1.5430001
-0.44423062 0.19905689 1.5450001
-0.44106773 0.19944341 1.5480001
-0.43788922 0.19982994 1.5510001
-0.43497479 0.20034528 1.5550001
-0.43203959 0.20086063 1.559
-0.42880908 0.20124716 1.562
-0.42556292 0.20163368 1.5650001
-0.42230123 0.2020202 1.5680001
-0.41902387 0.20240672 1.5710001
-0.41573092 0.20279324 1.5740001
-0.41242239 0.20317975 1.577
-0.40909824 0.20356627 1.58
-0.40601486 0.20408162 1.5840001
-0.40265691 0.20446815 1.5870001
-0.39953446 0.2049835 1.5910001
-0.39639121 0.20549886 1.595
-0.39347312 0.20614305 1.6
-0.3902857 0.20665841 1.6040001
-0.38731813 0.20730262 1.6090001
-0.38432461 0.20794681 1.6140001
-0.3813051 0.208591 1.6190001
-0.3780266 0.20910636 1.623
-0.37472737 0.20962173 1.6270001
-0.37231818 0.21065244 1.6350001
-0.36919203 0.21129663 1.6400001
-0.43355322 0.27339724 2.1220002
-0.4326745 0.27636054 2.1450002
-0.43028226 0.27842194 2.161
-0.42564526 0.27906618 2.1660001
-0.42059445 0.27945268 2.1690001
-0.41533667 0.27971035 2.171
-0.4098798 0.27983922 2.1720002
-0.40441775 0.27996802 2.1730001
-0.39876696 0.27996802 2.1730001
-0.39293528 0.27983922 2.1720002
-0.38710877 0.27971035 2.171
-0.3814632 0.27971035 2.171
-0.37564451 0.27958152 2.1700001
-0.36966053 0.27932385 2.1680002
-0.36368695 0.27906618 2.1660001
-0.35755846 0.27867964 2.1630001
-0.35128284 0.2781643 2.1590002
-0.34486791 0.27752009 2.154
-0.33847904 0.27687591 2.1490002
-0.33180633 0.27597404 2.1420002
-0.32547462 0.27532983 2.1370001
-0.31901926 0.27455679 2.131
-0.31288925 0.27404141 2.1270001
-0.3067801 0.27352607 2.1230001
-0.30083364 0.27313954 2.1200001
-0.29518139 0.27301073 2.1190002
-0.28980774 0.27313954 2.1200001
-0.28429478 0.27313954 2.1200001
-0.27904484 0.27339724 2.1220002
-0.27378446 0.27365491 2.1240001
-0.26838738 0.27378374 2.125
-0.26310885 0.27404141 2.1270001
-0.25794098 0.27442795 2.1300001
-0.25275752 0.27481446 2.1330001
-0.24767435 0.27532983 2.1370001
-0.24257037 0.27584517 2.141
-0.23755629 0.27648938 2.1460001
-0.2325162 0.27713355 2.151
-0.22755562 0.2779066 2.1570001
-0.22256383 0.27867964 2.1630001
-0.21764112 0.27958152 2.1700001
-0.21356125 0.28164294 2.1860001
-0.2074963 0.2811276 2.1820002
-0.2018221 0.2811276 2.1820002
-0.19614793 0.2811276 2.1820002
-0.19029915 0.2808699 2.1800001
-0.18437608 0.28048339 2.177
-0.17838654 0.27996802 2.1730001
-0.17241779 0.27945268 2.1690001
-0.16654675 0.27906618 2.1660001
-0.16076557 0.27880847 2.164
-0.15334594 0.2755875 2.1390002
-0.087210707 0.19145536 1.4860001
-0.083346441 0.19145536 1.4860001
-0.079482168 0.19145536 1.4860001
-0.075617895 0.19145536 1.4860001
-0.071705341 0.19132651 1.485
-0.067843668 0.19132651 1.485
-0.063982002 0.19132651 1.485
-0.060120329 0.19132651 1.485
-0.05625866 0.19132651 1.485
-0.036126342 0.27249533 2.115
-0.030684313 0.27301073 2.1190002
-0.025221478 0.27352607 2.1230001
-0.019747119 0.27417025 2.128
-0.014233396 0.27455679 2.131
-0.0087040719 0.27494329 2.1340001
-0.0031576662 0.27520099 2.1360002
0.0023980192 0.27532983 2.1370001
0.0079551833 0.27532983 2.1370001
0.0134997 0.27507213 2.135
0.019024894 0.27468562 2.1320002
0.024534484 0.27429911 2.1290002
0.03002847 0.27391258 2.1260002
0.035523579 0.27365491 2.1240001
0.041027613 0.27352607 2.1230001
0.046526443 0.27339724 2.1220002
0.052020069 0.27326837 2.1210001
0.05753563 0.27326837 2.1210001
0.063080914 0.27339724 2.1220002
0.068631396 0.27352607 2.1230001
0.074222013 0.27378374 2.125
0.079823025 0.27404141 2.1270001
0.085474573 0.27442795 2.1300001
0.091013528 0.27442795 2.1300001
0.096552491 0.27442795 2.1300001
0.10209146 0.27442795 2.1300001
0.10757989 0.27429911 2.1290002
0.11306311 0.27417025 2.128
0.11848541 0.27391258 2.1260002
0.1238973 0.27365491 2.1240001
0.12929881 0.27339724 2.1220002
0.13475342 0.27326837 2.1210001
0.14020284 0.27313954 2.1200001
0.1457158 0.27313954 2.1200001
0.15122876 0.27313954 2.1200001
0.15674171 0.27313954 2.1200001
0.16233119 0.27326837 2.1210001
0.16784677 0.27326837 2.1210001
0.17336231 0.27326837 2.1210001
0.17879353 0.27313954 2.1200001
0.18439342 0.27326837 2.1210001
0.18981946 0.27313954 2.1200001
0.19505599 0.27275303 2.1170001
0.20046641 0.27262419 2.1160002
0.20587161 0.27249533 2.115
0.21127163 0.27236652 2.1140001
0.21666646 0.27223769 2.1130002
0.22195092 0.27197999 2.1110001
0.22733274 0.27185115 2.1100001
0.23259901 0.27159348 2.108
0.23785487 0.27133581 2.1060002
0.24321587 0.27120695 2.105
0.24857169 0.27107811 2.1040001
0.25380152 0.27082044 2.102
0.25914437 0.2706916 2.1010001
0.26448196 0.27056277 2.1000001
0.2696858 0.27030507 2.098
0.27514157 0.27030507 2.098
0.2805973 0.27030507 2.098
0.28605303 0.27030507 2.098
0.29164776 0.27043393 2.0990002
0.29710612 0.27043393 2.0990002
0.30256444 0.27043393 2.0990002
0.30816954 0.27056277 2.1000001
0.31377983 0.2706916 2.1010001
0.31924337 0.2706916 2.1010001
0.32486144 0.27082044 2.102
0.33017048 0.2706916 2.1010001
0.33547428 0.27056277 2.1000001
0.3406105 0.27030507 2.098
0.34590131 0.27017623 2.0970001
0.35101935 0.26991856 2.095
0.35612699 0.26966089 2.0930002
0.36122423 0.26940319 2.0910001
0.36648643 0.26927438 2.0900002
0.37174338 0.26914552 2.089
0.37735629 0.26927438 2.0900002
0.38315755 0.26953202 2.092
0.38934073 0.27004743 2.0960002
0.39535633 0.27043393 2.0990002
0.40176946 0.27107811 2.1040001
0.40840214 0.27185115 2.1100001
0.41467369 0.27236652 2.1140001
-0.49722397 0.20504619 1.5600001
-0.4915866 0.20438899 1.5550001
-0.48628882 0.20386325 1.5510001
-0.48101175 0.20333748 1.5470001
-0.47575557 0.20281172 1.5430001
-0.47082585 0.2024174 1.5400001
-0.4662149 0.20215453 1.5380001
-0.4619149 0.20202307 1.5370001
-0.45762002 0.20189163 1.536
-0.45392105 0.20202307 1.5370001
-0.45021695 0.20215453 1.5380001
-0.44708782 0.20254885 1.5410001
-0.44365555 0.20281172 1.5430001
-0.44078279 0.20333748 1.5470001
-0.43760687 0.20373181 1.5500001
-0.43469504 0.20425755 1.554
-0.43176249 0.20478332 1.5580001
-0.42880908 0.20530908 1.562
-0.42556292 0.20570339 1.5650001
-0.42230123 0.20609772 1.5680001
-0.41902387 0.20649204 1.5710001
-0.41599503 0.20701779 1.575
-0.41268393 0.20741211 1.5780001
-0.40935719 0.20780644 1.5810001
-0.40627119 0.2083322 1.585
-0.40316436 0.20885795 1.5890001
-0.40003669 0.20938371 1.5930001
-0.39688829 0.20990948 1.5970001
-0.39371905 0.21043523 1.6010001
-0.39052901 0.21096098 1.605
-0.38755888 0.2116182 1.6100001
-0.38456276 0.2122754 1.6150001
-0.3813051 0.21280116 1.6190001
-0.3780266 0.2133269 1.623
-0.37426674 0.2135898 1.6250001
-0.37345678 0.21556139 1.6400001
-0.36964226 0.21582426 1.6420001
-0.43457478 0.27957261 2.1270001
-0.43287617 0.28206998 2.1460001
-0.43087959 0.28443587 2.164
-0.42662781 0.28535596 2.171
-0.42156398 0.28575027 2.174
-0.41629326 0.28601316 2.1760001
-0.41082335 0.28614458 2.177
-0.4053483 0.28627604 2.1780002
-0.399501 0.28614458 2.177
-0.39383981 0.28614458 2.177
-0.38800034 0.28601316 2.1760001
-0.38216606 0.28588173 2.1750002
-0.37633693 0.28575027 2.174
-0.37034255 0.28548741 2.1720002
-0.36435854 0.28522453 2.1700001
-0.35821965 0.28483018 2.1670001
-0.35193366 0.28430444 2.1630001
-0.34534824 0.28351581 2.1570001
-0.33895156 0.28285861 2.1520002
-0.33227104 0.28193855 2.1450002
-0.32577926 0.28114989 2.1390002
-0.31946838 0.28049269 2.1340001
-0.31333056 0.27996692 2.1300001
-0.30735812 0.27957261 2.1270001
-0.30140126 0.27917829 2.1240001
-0.29559931 0.27891544 2.1220002
-0.29021782 0.27904686 2.1230001
-0.28483117 0.27917829 2.1240001
-0.27943933 0.27930972 2.125
-0.27404225 0.27944118 2.1260002
-0.26876628 0.27970403 2.128
-0.26347995 0.27996692 2.1300001
-0.2583043 0.28036124 2.1330001
-0.253113 0.28075558 2.1360002
-0.24802205 0.28128132 2.1400001
-0.24291027 0.28180707 2.1440001
-0.23777767 0.28233284 2.148
-0.23273242 0.28299004 2.1530001
-0.22776662 0.2837787 2.1590002
-0.22276963 0.28456733 2.1650002
-0.21944644 0.28759044 2.1880002
-0.21375665 0.28759044 2.1880002
-0.20825705 0.2878533 2.1900001
-0.20191459 0.28693324 2.1830001
-0.19614793 0.28680182 2.1820002
-0.19029915 0.2865389 2.1800001
-0.18429139 0.28601316 2.1760001
-0.17822236 0.28535596 2.171
-0.17225881 0.28483018 2.1670001
-0.16639297 0.28443587 2.164
-0.1605427 0.28404155 2.161
-0.15313087 0.28075558 2.1360002
-0.087152019 0.19518819 1.485
-0.083290346 0.19518819 1.485
-0.079375193 0.19505677 1.4840001
-0.075516127 0.19505677 1.4840001
-0.071657054 0.19505677 1.4840001
-0.067752302 0.19492532 1.483
-0.063895829 0.19492532 1.483
-0.06003936 0.19492532 1.483
-0.056182891 0.19492532 1.483
-0.036194671 0.27852109 2.1190002
-0.030727755 0.27891544 2.1220002
-0.025245236 0.27930972 2.125
-0.019756399 0.27983549 2.1290002
-0.014246755 0.28036124 2.1330001
-0.0087122293 0.28075558 2.1360002
-0.0031591444 0.28088701 2.1370001
0.0023991412 0.28101844 2.138
0.0079551833 0.28088701 2.1370001
0.0134997 0.28062412 2.135
0.019024894 0.28022981 2.1320002
0.024534484 0.27983549 2.1290002
0.030042594 0.27957261 2.1270001
0.035540301 0.27930972 2.125
0.041027613 0.27904686 2.1230001
0.04654837 0.27904686 2.1230001
0.052069124 0.27904686 2.1230001
0.057589885 0.27904686 2.1230001
0.06317009 0.27930972 2.125
0.06872838 0.27944118 2.1260002
0.074361727 0.27983549 2.1290002
0.079973139 0.28009835 2.131
0.085635088 0.28049269 2.1340001
0.091227174 0.28062412 2.135
0.096779138 0.28062412 2.135
0.1023311 0.28062412 2.135
0.10783254 0.28049269 2.1340001
0.11327564 0.28022981 2.1320002
0.11876407 0.28009835 2.131
0.12418897 0.27983549 2.1290002
0.12966439 0.27970403 2.128
0.13513462 0.27957261 2.1270001
0.14059964 0.27944118 2.1260002
0.14612821 0.27944118 2.1260002
0.15165678 0.27944118 2.1260002
0.15725926 0.27957261 2.1270001
0.16279042 0.27957261 2.1270001
0.1684007 0.27970403 2.128
0.17393446 0.27970403 2.128
0.17938389 0.27957261 2.1270001
0.18482812 0.27944118 2.1260002
0.19026713 0.27930972 2.125
0.19560882 0.27904686 2.1230001
0.20094009 0.27878395 2.1210001
0.20626099 0.27852109 2.1190002
0.21167138 0.27838963 2.118
0.21697408 0.27812678 2.1160002
0.22226635 0.27786389 2.1140001
0.2275482 0.277601 2.112
0.23293002 0.27746958 2.1110001
0.23819371 0.27720669 2.1090002
0.2435625 0.27707523 2.108
0.24892612 0.2769438 2.1070001
0.25416377 0.27668092 2.105
0.25951439 0.27654949 2.1040001
0.2648598 0.27641806 2.1030002
0.27019995 0.2762866 2.102
0.27566615 0.2762866 2.102
0.28113228 0.2762866 2.102
0.28659841 0.2762866 2.102
0.29220355 0.27641806 2.1030002
0.2976723 0.27641806 2.1030002
0.30328515 0.27654949 2.1040001
0.30875653 0.27654949 2.1040001
0.31437722 0.27668092 2.105
0.31985116 0.27668092 2.105
0.32547966 0.27681237 2.1060002
0.33079907 0.27668092 2.105
0.33611327 0.27654949 2.1040001
0.3412599 0.2762866 2.102
0.3465611 0.27615517 2.1010001
0.35168958 0.27589232 2.0990002
0.35680759 0.2756294 2.0970001
0.36191523 0.27536651 2.095
0.36718783 0.27523509 2.0940001
0.37245524 0.27510366 2.0930002
0.37807852 0.27523509 2.0940001
0.38389021 0.27549797 2.0960002
0.389898 0.27589232 2.0990002
0.39610976 0.27641806 2.1030002
0.40234232 0.2769438 2.1070001
0.40917635 0.27786389 2.1140001
0.41526216 0.2782582 2.1170001
-0.49626777 0.20870078 1.557
-0.49127045 0.20829865 1.554
-0.48566172 0.20762844 1.549
-0.48038989 0.20709229 1.5450001
-0.47483057 0.20642209 1.5400001
-0.4702144 0.20615402 1.5380001
-0.4656086 0.20588592 1.536
-0.46131384 0.2057519 1.5350001
-0.45702419 0.20561785 1.534
-0.45333043 0.2057519 1.5350001
-0.4499242 0.20601997 1.5370001
-0.44650754 0.20628804 1.539
-0.44336802 0.20669016 1.5420001
-0.44021294 0.20709229 1.5450001
-0.43732452 0.20762844 1.549
-0.43441534 0.20816462 1.5530001
-0.43148535 0.20870078 1.557
-0.42880908 0.20937097 1.562
-0.42583486 0.20990714 1.5660001
-0.42257056 0.21030927 1.5690001
-0.4192906 0.21071137 1.572
-0.41625917 0.21124755 1.5760001
-0.41294548 0.21164967 1.5790001
-0.40987504 0.21218581 1.5830001
-0.40678385 0.21272199 1.5870001
-0.40341806 0.2131241 1.59
-0.40028784 0.21366027 1.5940001
-0.39713678 0.21419643 1.598
-0.39396498 0.21473259 1.6020001
-0.39077231 0.21526875 1.6060001
-0.38779959 0.21593896 1.6110001
-0.38480085 0.21660915 1.6160001
-0.3813051 0.21701127 1.6190001
-0.3777937 0.2174134 1.6220001
-0.37426674 0.21781552 1.6250001
-0.37391222 0.2200942 1.6420001
-0.43518773 0.28550589 2.1300001
-0.43307787 0.28778455 2.1470001
-0.43167609 0.29059944 2.1680002
-0.42741388 0.2915377 2.1750002
-0.42253357 0.29207385 2.1790001
-0.41724977 0.29234192 2.181
-0.41176692 0.29247597 2.1820002
-0.40609273 0.29247597 2.1820002
-0.40041858 0.29247597 2.1820002
-0.39456344 0.29234192 2.181
-0.38871354 0.2922079 2.1800001
-0.38286889 0.29207385 2.1790001
-0.37702939 0.29193982 2.1780002
-0.37119508 0.29180577 2.177
-0.36503017 0.29140365 2.174
-0.35871559 0.29086748 2.1700001
-0.35242176 0.29033133 2.1660001
-0.34582856 0.28952709 2.1600001
-0.33926657 0.28872284 2.154
-0.33273572 0.2879186 2.148
-0.32638848 0.2872484 2.1430001
-0.31991747 0.28644416 2.1370001
-0.31377187 0.28590801 2.1330001
-0.30764714 0.28537184 2.1290002
-0.30182695 0.28510377 2.1270001
-0.2960172 0.28483567 2.125
-0.29062793 0.28496972 2.1260002
-0.28509939 0.28496972 2.1260002
-0.27970234 0.28510377 2.1270001
-0.27430004 0.28523779 2.128
-0.26889262 0.28537184 2.1290002
-0.26360363 0.28563991 2.131
-0.25842538 0.28604203 2.1340001
-0.2532315 0.28644416 2.1370001
-0.24813794 0.2869803 2.141
-0.24302357 0.2875165 2.1450002
-0.23799908 0.28818667 2.1500001
-0.23294862 0.28885689 2.1550002
-0.22861058 0.29046535 2.1670001
-0.22462174 0.29261002 2.1830001
-0.21944644 0.29328021 2.1880002
-0.21385434 0.29341426 2.1890001
-0.20759138 0.29261002 2.1830001
-0.20191459 0.29261002 2.1830001
-0.19614793 0.29247597 2.1820002
-0.19021186 0.29207385 2.1790001
-0.18420671 0.2915377 2.1750002
-0.17814027 0.29086748 2.1700001
-0.17209983 0.29019731 2.1650002
-0.16616228 0.28966111 2.161
-0.16039413 0.28939307 2.1590002
-0.15291579 0.28590801 2.1330001
-0.087152019 0.19904986 1.485
-0.083234265 0.19891584 1.4840001
-0.079321705 0.19878179 1.483
-0.075465232 0.19878179 1.483
-0.071608767 0.19878179 1.483
-0.067706615 0.19864775 1.4820001
-0.063809663 0.19851372 1.4810001
-0.059958391 0.19851372 1.4810001
-0.056107122 0.19851372 1.4810001
-0.036228828 0.28429949 2.1210001
-0.030756714 0.28470162 2.1240001
-0.025280876 0.28523779 2.128
-0.019774958 0.28563991 2.131
-0.014253435 0.28604203 2.1340001
-0.0087122293 0.28631014 2.1360002
-0.0031606224 0.28657818 2.138
0.0024002637 0.28671226 2.1390002
0.0079551833 0.28644416 2.1370001
0.013506024 0.28631014 2.1360002
0.019033816 0.28590801 2.1330001
0.024546007 0.28550589 2.1300001
0.030042594 0.28510377 2.1270001
0.035540301 0.28483567 2.125
0.041046936 0.28470162 2.1240001
0.046570294 0.28470162 2.1240001
0.052093647 0.28470162 2.1240001
0.057644133 0.28483567 2.125
0.063229546 0.28510377 2.1270001
0.068825364 0.28537184 2.1290002
0.074466512 0.28577396 2.1320002
0.080123253 0.28617606 2.135
0.085755475 0.28644416 2.1370001
0.091398098 0.28671226 2.1390002
0.096960463 0.28671226 2.1390002
0.10252284 0.28671226 2.1390002
0.10803466 0.28657818 2.138
0.11354129 0.28644416 2.1370001
0.11904272 0.28631014 2.1360002
0.12448062 0.28604203 2.1340001
0.12996906 0.28590801 2.1330001
0.13545229 0.28577396 2.1320002
0.14093029 0.28563991 2.131
0.14647187 0.28563991 2.131
0.15201344 0.28563991 2.131
0.15762894 0.28577396 2.1320002
0.16317309 0.28577396 2.1320002
0.16879639 0.28590801 2.1330001
0.17434315 0.28590801 2.1330001
0.17980559 0.28577396 2.1320002
0.18534973 0.28577396 2.1320002
0.19071482 0.28550589 2.1300001
0.19606951 0.28523779 2.128
0.2014138 0.28496972 2.1260002
0.20674767 0.28470162 2.1240001
0.21197119 0.28429949 2.1210001
0.2172817 0.28403145 2.1190002
0.22258177 0.28376335 2.1170001
0.22787142 0.28349525 2.115
0.23315072 0.28322721 2.1130002
0.23841956 0.2829591 2.1110001
0.24379359 0.28282508 2.1100001
0.24916242 0.28269103 2.1090002
0.25452599 0.28255698 2.108
0.26000774 0.28255698 2.108
0.26523763 0.28228891 2.1060002
0.27071416 0.28228891 2.1060002
0.27619073 0.28228891 2.1060002
0.28166726 0.28228891 2.1060002
0.28728014 0.28242296 2.1070001
0.29275933 0.28242296 2.1070001
0.29837999 0.28255698 2.108
0.30400592 0.28269103 2.1090002
0.30949029 0.28269103 2.1090002
0.31512398 0.28282508 2.1100001
0.32061091 0.28282508 2.1100001
0.32609785 0.28282508 2.1100001
0.33142769 0.28269103 2.1090002
0.33675227 0.28255698 2.108
0.34190932 0.28228891 2.1060002
0.3472209 0.28215486 2.105
0.35235977 0.28188679 2.1030002
0.35748819 0.28161871 2.1010001
0.36260629 0.28135064 2.0990002
0.36788923 0.28121659 2.098
0.37316704 0.28108254 2.0970001
0.37880072 0.28121659 2.098
0.38443968 0.28135064 2.0990002
0.39045522 0.28175274 2.102
0.39667481 0.28228891 2.1060002
0.40329707 0.28309312 2.112
0.41014415 0.28403145 2.1190002
0.41545832 0.28389737 2.118
-0.49499285 0.21220312 1.5530001
-0.49000594 0.21179318 1.5500001
-0.48472115 0.21124662 1.5460001
-0.47945708 0.21070005 1.5420001
-0.47452223 0.21029013 1.539
-0.46960291 0.2098802 1.536
-0.46500236 0.20960693 1.534
-0.46071279 0.2094703 1.5330001
-0.45672628 0.2094703 1.5330001
-0.45303506 0.20960693 1.534
-0.44933876 0.20974357 1.5350001
-0.44621745 0.21015351 1.5380001
-0.44336802 0.21070005 1.5420001
-0.44021294 0.21110998 1.5450001
-0.43732452 0.21165654 1.549
-0.43441534 0.21220312 1.5530001
-0.43176249 0.21288632 1.5580001
-0.42880908 0.21343286 1.562
-0.42610678 0.21411607 1.567
-0.42283988 0.214526 1.5700001
-0.41982406 0.21507257 1.5740001
-0.41652328 0.21548247 1.577
-0.41320696 0.2158924 1.58
-0.41013396 0.21643898 1.5840001
-0.40704015 0.21698552 1.5880001
-0.40392551 0.2175321 1.5920001
-0.40079007 0.21807866 1.5960001
-0.39763382 0.21862522 1.6
-0.3944568 0.21917179 1.6040001
-0.39125896 0.21971834 1.608
-0.3880403 0.22026491 1.6120001
-0.38480085 0.22081147 1.6160001
-0.38154063 0.22135805 1.6200001
-0.3777937 0.22163132 1.6220001
-0.3740364 0.22190461 1.6240001
-0.37459537 0.22477406 1.6450001
-0.43580067 0.29145476 2.1330001
-0.43206933 0.29268453 2.1420002
-0.43227339 0.29664707 2.171
-0.42819995 0.29774022 2.1790001
-0.42330921 0.2982868 2.1830001
-0.41801506 0.29856008 2.1850002
-0.41252175 0.2986967 2.1860001
-0.40683717 0.2986967 2.1860001
-0.40115261 0.2986967 2.1860001
-0.3952871 0.29856008 2.1850002
-0.3896051 0.29856008 2.1850002
-0.3837474 0.29842341 2.184
-0.37772182 0.29815015 2.1820002
-0.3717066 0.29787686 2.1800001
-0.36553389 0.29746693 2.177
-0.3592115 0.29692039 2.1730001
-0.35290989 0.29637381 2.1690001
-0.34614879 0.29541734 2.1620002
-0.33958158 0.29459748 2.1560001
-0.33304554 0.29377764 2.1500001
-0.32669309 0.29309446 2.1450002
-0.32036659 0.29241124 2.1400001
-0.31421322 0.29186469 2.1360002
-0.30822513 0.29145476 2.1330001
-0.30225268 0.29104483 2.1300001
-0.29657444 0.29090819 2.1290002
-0.29090133 0.29077154 2.128
-0.28536758 0.29077154 2.128
-0.27996534 0.29090819 2.1290002
-0.27455786 0.29104483 2.1300001
-0.26914519 0.29118145 2.131
-0.26372734 0.29131812 2.1320002
-0.25854647 0.29172802 2.135
-0.25346851 0.29227459 2.1390002
-0.24836974 0.29282117 2.1430001
-0.24325016 0.29336771 2.1470001
-0.23810977 0.29391426 2.151
-0.23381338 0.29555398 2.1630001
-0.22987653 0.29774022 2.1790001
-0.22472464 0.29842341 2.184
-0.21944644 0.29897001 2.1880002
-0.21395202 0.29924327 2.1900001
-0.20835216 0.29937991 2.1910002
-0.20191459 0.2982868 2.1830001
-0.19605802 0.29801348 2.181
-0.19012457 0.29760361 2.1780002
-0.18403731 0.29692039 2.1730001
-0.17797609 0.2962372 2.1680002
-0.17194083 0.29555398 2.1630001
-0.16608539 0.29514405 2.1600001
-0.16024554 0.29473412 2.1570001
-0.087093331 0.2027749 1.4840001
-0.083178177 0.20263825 1.483
-0.079268217 0.20250162 1.4820001
-0.075414352 0.20250162 1.4820001
-0.071512192 0.20236497 1.4810001
-0.067660928 0.20236497 1.4810001
-0.063766576 0.20222832 1.48
-0.059917904 0.20222832 1.48
-0.056069236 0.20222832 1.48
-0.036245912 0.28995171 2.1220002
-0.030771194 0.29036161 2.125
-0.025292758 0.29090819 2.1290002
-0.019774958 0.29118145 2.131
-0.014253435 0.29159138 2.1340001
-0.0087163085 0.29200131 2.1370001
-0.0031621011 0.29227459 2.1390002
0.0024002637 0.29227459 2.1390002
0.0079589048 0.29213795 2.138
0.013512347 0.29200131 2.1370001
0.01904274 0.29159138 2.1340001
0.024557529 0.29118145 2.131
0.030070845 0.29090819 2.1290002
0.035573751 0.2906349 2.1270001
0.04108559 0.29049829 2.1260002
0.046614148 0.29049829 2.1260002
0.052142702 0.29049829 2.1260002
0.057698391 0.2906349 2.1270001
0.063289002 0.29090819 2.1290002
0.068922348 0.29131812 2.1320002
0.074571289 0.29172802 2.135
0.080235839 0.29213795 2.138
0.08591599 0.29254785 2.141
0.091526285 0.29268453 2.1420002
0.097096451 0.29268453 2.1420002
0.10266662 0.29268453 2.1420002
0.10823679 0.29268453 2.1420002
0.11380696 0.29268453 2.1420002
0.11926565 0.29241124 2.1400001
0.12477229 0.29227459 2.1390002
0.13021278 0.29200131 2.1370001
0.13570642 0.29186469 2.1360002
0.14126097 0.29186469 2.1360002
0.14681554 0.29186469 2.1360002
0.15244144 0.29200131 2.1370001
0.15799859 0.29200131 2.1370001
0.16363229 0.29213795 2.138
0.16919206 0.29213795 2.138
0.17475182 0.29213795 2.138
0.18031159 0.29213795 2.138
0.18569748 0.29186469 2.1360002
0.19107297 0.29159138 2.1340001
0.19634593 0.29118145 2.131
0.20179275 0.29104483 2.1300001
0.20713702 0.29077154 2.128
0.21237095 0.29036161 2.125
0.21769185 0.29008836 2.1230001
0.22289719 0.28967842 2.1200001
0.22808692 0.28926849 2.1170001
0.23337138 0.28899521 2.115
0.23864546 0.28872195 2.1130002
0.24402466 0.28858528 2.112
0.24951681 0.28858528 2.112
0.25488824 0.28844866 2.1110001
0.26037779 0.28844866 2.1110001
0.26586732 0.28844866 2.1110001
0.27122834 0.28831202 2.1100001
0.27671531 0.28831202 2.1100001
0.28220224 0.28831202 2.1100001
0.28782552 0.28844866 2.1110001
0.29345405 0.28858528 2.112
0.29908776 0.28872195 2.1130002
0.30458251 0.28872195 2.1130002
0.310224 0.28885856 2.1140001
0.31572136 0.28885856 2.1140001
0.3212187 0.28885856 2.1140001
0.32671604 0.28885856 2.1140001
