# .PCD v0.7 - Point Cloud Data file format
VERSION 0.7
FIELDS x y z
SIZE 4 4 4
TYPE F F F
COUNT 1 1 1
WIDTH 1509
HEIGHT 1
VIEWPOINT 0 0 0 1 0 0 0
POINTS 1509
DATA ascii
-1.4514074 0.83314997 3.6150002
-1.4503814 0.83798981 3.6360002
-1.4496425 0.8430602 3.6580002
-1.440128 0.8430602 3.6580002
-1.4306133 0.8430602 3.6580002
-1.412552 0.83798981 3.6360002
-1.4030946 0.83798981 3.6360002
-1.3855882 0.83314997 3.6150002
-1.3761854 0.83314997 3.6150002
-1.3588428 0.82831007 3.5940001
-1.3416095 0.82347023 3.5730002
-1.3222481 0.81724751 3.5460002
-1.3126546 0.81701702 3.5450001
-1.2883589 0.80756778 3.5040002
-1.2796099 0.80779821 3.5050001
-1.2701309 0.80756778 3.5040002
-1.2462617 0.79811847 3.4630001
-1.2386835 0.79904038 3.4670002
-1.2105131 0.78659493 3.4130001
-1.2009317 0.78613406 3.4110003
-1.185769 0.78198558 3.3930001
-1.178678 0.78313792 3.3980002
-1.1705283 0.78359884 3.4000001
-1.1623681 0.78405982 3.4020002
-1.1545365 0.78475124 3.4050002
-1.1480353 0.7863645 3.4120002
-1.1488427 0.79304814 3.4410002
-1.1402239 0.79327857 3.4420002
-1.1424457 0.80111456 3.4760001
-1.1340566 0.80157554 3.4780002
-1.1259806 0.80226696 3.4810002
-1.1143595 0.80042315 3.473
-1.1094635 0.80341929 3.4860001
-1.1089193 0.80964202 3.5130002
-1.0997818 0.80964202 3.5130002
-1.0909547 0.80987245 3.5140002
-1.0836619 0.81125528 3.5200002
-1.0699273 0.80779821 3.5050001
-1.060508 0.80756778 3.5040002
-1.0507939 0.80710679 3.5020001
-1.0407927 0.80641538 3.4990001
-1.0311019 0.80595446 3.4970002
-1.0196681 0.80411071 3.4890001
-1.0103035 0.80388021 3.4880002
-1.0000829 0.80295837 3.4840002
-0.98988307 0.80203652 3.4800003
-0.97970402 0.80111456 3.4760001
-0.96982509 0.80042315 3.473
-0.9602384 0.79996222 3.4710002
-0.95066208 0.7995013 3.4690001
-0.93973905 0.79788798 3.4620001
-0.92992765 0.79719657 3.4590001
-0.92146319 0.79765755 3.4610002
-0.91246104 0.79765755 3.4610002
-0.9029367 0.79719657 3.4590001
-0.8934229 0.7967357 3.4570003
-0.87726766 0.79028249 3.4290001
-0.8680954 0.79005206 3.4280002
-0.84990555 0.78152466 3.3910003
-0.84232557 0.78267699 3.3960001
-0.83324707 0.7824465 3.3950002
-0.81057501 0.7693097 3.3380001
-0.80405486 0.77138394 3.3470001
-0.79487401 0.77092302 3.3450003
-0.77277678 0.75778615 3.2880001
-0.76375979 0.75732529 3.2860003
-0.75613207 0.75824714 3.2900002
-0.74689293 0.75755572 3.2870002
-0.73789412 0.75709474 3.2850001
-0.72912765 0.75686431 3.2840002
-0.71356428 0.74948925 3.2520001
-0.70488894 0.74925882 3.2510002
-0.69621873 0.74902833 3.2500002
-0.6875537 0.74879783 3.2490001
-0.67868495 0.74833691 3.2470002
-0.65971202 0.73658293 3.1960001
-0.65119529 0.73635244 3.1950002
-0.6342327 0.72644222 3.1520002
-0.62603426 0.72644222 3.1520002
-0.61136734 0.71883672 3.1190002
-0.60325468 0.71883672 3.1190002
-0.59533286 0.71906716 3.1200001
-0.58759409 0.71952814 3.1220002
-0.57965922 0.71975857 3.1230001
-0.57171917 0.71998906 3.1240001
-0.57243353 0.73128211 3.1730001
-0.56435823 0.73151261 3.1740003
-0.56381154 0.74165326 3.2180002
-0.56130999 0.74948925 3.2520001
-0.56305164 0.76331753 3.3120003
-0.55443698 0.76331753 3.3120003
-0.55472165 0.77576286 3.3660002
-0.54612875 0.77599335 3.3670001
-0.54423386 0.78590351 3.4100001
-0.53505033 0.78544265 3.4080002
-0.52618599 0.78544265 3.4080002
-0.51747346 0.78567308 3.4090002
-0.5144251 0.7946614 3.4480002
-0.50560331 0.79489189 3.4490001
-0.49634439 0.79443097 3.4470003
-0.4923273 0.80249739 3.4820001
-0.48354807 0.80295837 3.4840002
-0.47475845 0.80341929 3.4860001
-0.46996605 0.81079435 3.5180001
-0.46094659 0.81102479 3.5190001
-0.45205036 0.81148577 3.5210001
-0.44679144 0.81863034 3.5520003
-0.43755257 0.81863034 3.5520003
-0.43084595 0.82347023 3.5730002
-0.42155245 0.82347023 3.5730002
-0.41225892 0.82347023 3.5730002
-0.40296543 0.82347023 3.5730002
-0.39058688 0.81701702 3.5450001
-0.38168892 0.81770843 3.5480001
-0.36857629 0.80918103 3.5110002
-0.35944405 0.80918103 3.5110002
-0.34572214 0.79857939 3.4650002
-0.33680671 0.79880989 3.4660001
-0.32258999 0.78613406 3.4110003
-0.31289011 0.78405982 3.4020002
-0.30234331 0.77968085 3.3830001
-0.2932837 0.77898943 3.3800001
-0.28415552 0.77806759 3.3760002
-0.27194855 0.76838779 3.3340001
-0.26311874 0.76792687 3.3320003
-0.25445211 0.76792687 3.3320003
-0.24246602 0.75755572 3.2870002
-0.23391639 0.75755572 3.2870002
-0.22365271 0.75179392 3.2620001
-0.21503621 0.75133306 3.2600002
-0.20655684 0.75133306 3.2600002
-0.19795592 0.75087208 3.2580001
-0.18942359 0.75064164 3.2570002
-0.18084089 0.75018066 3.2550001
-0.17242746 0.75041109 3.256
-0.16405921 0.75087208 3.2580001
-0.1557283 0.75156349 3.2610002
-0.14742692 0.75248533 3.2650001
-0.1390622 0.75317675 3.2680001
-0.13064191 0.75363773 3.2700002
-0.12217388 0.75386816 3.2710001
-0.11363113 0.75363773 3.2700002
-0.10509358 0.75340724 3.2690001
-0.095083877 0.74165326 3.2180002
-0.0018824914 0.46347567 2.0110002
0.0033431996 0.46278426 2.0080001
0.0084935604 0.45886627 1.9910001
0.01363789 0.4577139 1.9860001
0.01880355 0.4577139 1.9860001
0.024005419 0.45840532 1.9890001
0.02919355 0.45863581 1.9900001
0.034386888 0.45886627 1.9910001
0.039625168 0.45955768 1.9940001
0.044856582 0.4600186 1.9960001
0.050048251 0.4600186 1.9960001
0.056845091 0.4733859 2.0540001
0.06224817 0.47384682 2.056
0.067332886 0.47200307 2.0480001
0.073653206 0.47845626 2.0760002
0.4237451 0.80503261 3.4930003
0.43307835 0.80549353 3.4950001
0.4415364 0.8043412 3.4900002
0.4503558 0.80388021 3.4880002
0.45903301 0.8031888 3.4850001
0.46782905 0.80272794 3.4830003
0.47264397 0.79558331 3.4520001
0.48022753 0.79327857 3.4420002
0.48932242 0.79350907 3.4430001
0.49885672 0.79443097 3.4470003
0.50104558 0.78382933 3.4010003
0.51079124 0.7852121 3.4070001
0.51324695 0.77553242 3.3650002
0.52277505 0.77668476 3.3700001
0.53169829 0.77691519 3.3710001
0.53357226 0.76700497 3.3280001
0.54336905 0.76861829 3.3350003
0.55171245 0.76815736 3.3330002
0.56038165 0.76815736 3.3330002
0.56341678 0.76055181 3.3000002
0.57182688 0.76032138 3.2990003
0.57512963 0.75340724 3.2690001
0.57756221 0.74557126 3.2350001
0.5790934 0.73681343 3.1970003
0.58759266 0.73704386 3.1980002
0.58864361 0.72805554 3.1590002
0.5959155 0.72690314 3.154
0.59664917 0.71791488 3.1150002
0.60067439 0.71307492 3.0940001
0.60242617 0.70569986 3.062
0.60002476 0.69371545 3.0100002
0.59513134 0.67919582 2.947
0.58459198 0.65868396 2.858
0.57379687 0.63840264 2.7700002
0.54618359 0.60014451 2.6040001
0.52237839 0.56695682 2.46
0.50685209 0.54344881 2.358
0.4934057 0.52270651 2.2680001
0.48609576 0.50887835 2.2080002
0.48471075 0.50150329 2.1760001
0.48360997 0.49458918 2.1460001
0.4846327 0.48997977 2.1260002
0.48877919 0.48859695 2.1200001
0.49359387 0.48790553 2.1170001
0.49862877 0.48744455 2.115
0.50198478 0.48537037 2.1060002
0.50722152 0.48513985 2.105
0.51294035 0.48537037 2.1060002
0.51891041 0.48583126 2.108
0.52513969 0.4865227 2.1110001
0.53163594 0.48744455 2.115
0.54069263 0.49067119 2.1290002
0.54699999 0.4913626 2.1320002
0.55306369 0.49182349 2.1340001
0.55913788 0.49228448 2.1360002
0.56495804 0.49251491 2.1370001
0.5702495 0.49228448 2.1360002
0.57553571 0.49205396 2.135
0.58027244 0.4913626 2.1320002
0.58361965 0.48951882 2.1240001
0.58526099 0.48629224 2.1100001
0.58710951 0.48329613 2.0970001
0.58719492 0.47891718 2.0780001
0.58803701 0.47522965 2.062
0.59138584 0.47361636 2.0550001
0.58743888 0.4662413 2.023
0.59240776 0.46601084 2.0220001
0.59707588 0.46554989 2.02
0.60143554 0.46485853 2.0170002
0.6015684 0.46094048 2
0.60404003 0.45886627 1.9910001
0.60799479 0.45794439 1.9870001
0.61470598 0.45909673 1.9920001
0.62082076 0.45978814 1.9950001
0.62569606 0.45955768 1.9940001
0.62455475 0.45494828 1.9740001
0.6379829 0.46094048 2
0.64318502 0.46094048 2
0.64871132 0.461171 2.0010002
0.65195519 0.45978814 1.9950001
0.65846187 0.46071002 1.9990001
0.66498929 0.46163189 2.003
0.67120296 0.46232331 2.006
0.67608345 0.46209285 2.0050001
0.69115275 0.46877649 2.0340002
0.69267678 0.4662413 2.023
0.70966882 0.47407731 2.0570002
0.71988559 0.47730389 2.0710001
0.72737354 0.47868672 2.0770001
0.73489273 0.48006955 2.0830002
0.74066609 0.48030001 2.0840001
0.74966675 0.48260471 2.0940001
0.75727695 0.48398754 2.1000001
0.76419199 0.48490942 2.1040001
0.77112776 0.48583126 2.108
0.77808434 0.48675314 2.112
0.78469086 0.48744455 2.115
0.79168653 0.48836648 2.1190002
0.80547476 0.49343678 2.141
0.82013524 0.49896812 2.1650002
0.84026027 0.50772595 2.2030001
0.86250305 0.51763618 2.2460001
0.87685066 0.52270651 2.2680001
0.49064407 0.26895878 1.1670001
0.49410251 0.26918927 1.1680001
0.49714053 0.26918927 1.1680001
0.49975029 0.26895878 1.1670001
0.50235486 0.26872832 1.166
0.50538766 0.26872832 1.166
0.50842047 0.26872832 1.166
0.5118919 0.26895878 1.1670001
0.51536858 0.26918927 1.1680001
0.51929432 0.26965019 1.1700001
0.52367681 0.2703416 1.1730001
0.52762592 0.27080256 1.1750001
0.53158545 0.27126348 1.177
0.53600961 0.27195489 1.1800001
0.54044932 0.27264631 1.1830001
0.54490477 0.27333772 1.1860001
0.54983777 0.2742596 1.1900001
0.55386227 0.27472052 1.192
0.55836445 0.27541196 1.1950001
0.56288224 0.27610338 1.1980001
0.56694317 0.2765643 1.2
0.57101452 0.27702522 1.202
0.57557398 0.27771664 1.205
0.57918847 0.27794713 1.2060001
0.58280814 0.27817759 1.207
0.58691859 0.27863854 1.2090001
0.59006321 0.27863854 1.2090001
0.5936985 0.278869 1.21
0.59684575 0.278869 1.21
0.59999299 0.278869 1.21
0.60264182 0.27863854 1.2090001
0.6057865 0.27863854 1.2090001
0.60893112 0.27863854 1.2090001
0.61258203 0.278869 1.21
-1.565352 0.69315398 2.9740002
-1.539809 0.68522954 2.9400001
-1.532162 0.68522954 2.9400001
-1.5053289 0.67660594 2.9030001
-1.5013896 0.67823744 2.9100001
-1.4933074 0.67800438 2.9090002
-1.471951 0.67171144 2.8820002
-1.4639465 0.67147833 2.881
-1.4438145 0.66565156 2.8560002
-1.435883 0.66541845 2.855
-1.4274565 0.66495234 2.8530002
-1.4195379 0.66471928 2.8520002
-1.4121199 0.66471928 2.8520002
-1.3992838 0.66215551 2.8410001
-1.4134513 0.67241067 2.8850002
-1.4156938 0.67707211 2.9050002
-1.436252 0.6905902 2.9630001
-1.4410806 0.69665003 2.9890001
-1.4563233 0.70783746 3.0370002
-1.4756087 0.7211225 3.0940001
-1.4903288 0.73231 3.1420002
-1.5189507 0.75048953 3.2200003
-1.5298095 0.76004547 3.2610002
-1.520861 0.75981241 3.2600002
-1.5383611 0.7728644 3.3160002
-1.5311201 0.77356362 3.3190002
-1.5321202 0.77845806 3.3400002
-1.5330112 0.78335255 3.3610001
-1.5256296 0.78405178 3.3640001
-1.5227418 0.78708172 3.3770001
-1.5179929 0.78917933 3.3860002
-1.5238943 0.79687071 3.4190001
-1.5154444 0.79710376 3.4200001
-1.50743 0.79756993 3.4220002
-1.499405 0.7980361 3.4240003
-1.4913697 0.79850221 3.4260001
-1.4989014 0.80735892 3.4640002
-1.4903215 0.80759197 3.4650002
-1.4817364 0.80782503 3.4660001
-1.4731462 0.80805814 3.4670002
-1.4772198 0.8152833 3.4980001
-1.4689609 0.81574947 3.5000002
-1.4786267 0.82623768 3.5450001
-1.468577 0.82577157 3.5430002
-1.4577141 0.82483929 3.5390003
-1.4710203 0.83765817 3.5940001
-1.4702129 0.84255266 3.6150002
-1.4692962 0.84744716 3.6360002
-1.4686718 0.85257477 3.6580002
-1.4679327 0.85770226 3.6800001
-1.4583609 0.85770226 3.6800001
-1.4487891 0.85770226 3.6800001
-1.4392173 0.85770226 3.6800001
-1.4296455 0.85770226 3.6800001
-1.4200737 0.85770226 3.6800001
-1.4020696 0.85257477 3.6580002
-1.392555 0.85257477 3.6580002
-1.3747225 0.84744716 3.6360002
-1.3573799 0.84255266 3.6150002
-1.3401465 0.83765817 3.5940001
-1.3230225 0.83276367 3.5730002
-1.3034338 0.82623768 3.5450001
-1.2938482 0.82600462 3.5440001
-1.2846301 0.82600462 3.5440001
-1.2638958 0.8185463 3.5120001
-1.2411845 0.80968964 3.4740002
-1.2126412 0.79687071 3.4190001
-1.202692 0.79617149 3.4160001
-1.1952047 0.79710376 3.4200001
-1.1800655 0.79290849 3.4020002
-1.1712168 0.79290849 3.4020002
-1.1630514 0.7933746 3.404
-1.1548756 0.79384077 3.4060001
-1.1476989 0.79500616 3.4110003
-1.1488427 0.80199826 3.4410002
-1.1402239 0.80223131 3.4420002
-1.1424457 0.81015575 3.4760001
-1.1340566 0.81062192 3.4780002
-1.1259806 0.81132114 3.4810002
-1.117889 0.81202036 3.4840002
-1.1094635 0.81248647 3.4860001
-1.1010276 0.81295264 3.4880002
-1.0922683 0.81318569 3.4890001
-1.0835037 0.81341881 3.4900002
-1.0744262 0.81341881 3.4900002
-1.0644327 0.81271958 3.4870002
-1.0592974 0.81574947 3.5000002
-1.0492936 0.81505024 3.4970002
-1.0396029 0.81458414 3.4950001
-1.0302174 0.81435108 3.4940002
-1.0196681 0.81318569 3.4890001
-1.0103035 0.81295264 3.4880002
-1.0003698 0.81225342 3.4850001
-0.9901675 0.81132114 3.4810002
-0.98026776 0.81062192 3.4780002
-0.97038364 0.8099227 3.4750001
-0.96051502 0.80922347 3.4720001
-0.9512102 0.80899042 3.4710002
-0.94136769 0.8082912 3.4680002
-0.93180954 0.80782503 3.4660001
-0.92199564 0.80712581 3.4630001
-0.91272467 0.80689275 3.4620001
-0.9029367 0.80619353 3.4590001
-0.88670349 0.7996676 3.4310002
-0.87726766 0.79920143 3.4290001
-0.8680954 0.79896837 3.4280002
-0.84940428 0.78987855 3.3890002
-0.83166009 0.781488 3.3530002
-0.82269341 0.78125495 3.3520002
-0.80547559 0.77309746 3.3170002
-0.79660773 0.7728644 3.3160002
-0.77681404 0.76190996 3.2690001
-0.77066153 0.76424068 3.279
-0.75004649 0.75212103 3.2270002
-0.74096346 0.75142181 3.2240002
-0.73189598 0.75072259 3.2210002
-0.72284424 0.75002337 3.2180002
-0.71402997 0.7495572 3.2160001
-0.69798529 0.74139977 3.1810002
-0.68927771 0.7409336 3.1790001
-0.68036634 0.74023438 3.1760001
-0.67168224 0.73976827 3.1740003
-0.66321748 0.73953515 3.1730001
-0.64588201 0.72928005 3.1290002
-0.63733572 0.72881389 3.1270001
-0.62879992 0.72834778 3.1250002
-0.62047297 0.72811466 3.1240001
-0.60568291 0.72019023 3.0900002
-0.59783912 0.72042328 3.0910001
-0.58999014 0.72065639 3.0920002
-0.58213598 0.72088945 3.0930002
-0.57427651 0.7211225 3.0940001
-0.57171917 0.72811466 3.1240001
-0.56323272 0.72764856 3.1220002
-0.5604465 0.73464066 3.1520002
-0.55890578 0.74349737 3.1900001
-0.55078113 0.74373049 3.1910002
-0.54979134 0.75375253 3.2340002
-0.55108893 0.76727062 3.2920001
-0.54269117 0.76750374 3.2930002
-0.53980291 0.77566117 3.3280001
-0.53130633 0.77589428 3.3290002
-0.52877039 0.78498411 3.3680003
-0.52031887 0.78545022 3.3700001
-0.51170516 0.78568327 3.3710001
-0.5075621 0.79290849 3.4020002
-0.49885997 0.79314154 3.4030001
-0.49634439 0.8033967 3.4470003
-0.48751998 0.80362976 3.4480002
-0.47869036 0.80386281 3.4490001
-0.46985561 0.80409586 3.45
-0.46422175 0.8099227 3.4750001
-0.45544511 0.81038886 3.4770002
-0.45205036 0.82064396 3.5210001
-0.44301784 0.82087702 3.5220001
-0.43434978 0.82180935 3.5260003
-0.42578143 0.82297468 3.5310001
-0.41718709 0.82414007 3.5360003
-0.40845132 0.82507235 3.5400002
-0.39935642 0.8253054 3.5410001
-0.3904767 0.82600462 3.5440001
-0.37717065 0.81714791 3.5060003
-0.36847132 0.81808019 3.5100002
-0.35934168 0.81808019 3.5100002
-0.34582192 0.80782503 3.4660001
-0.33680671 0.80782503 3.4660001
-0.32268456 0.79523921 3.4120002
-0.31334996 0.79407382 3.4070001
-0.30261141 0.78917933 3.3860002
-0.29345724 0.78824705 3.3820002
-0.28415552 0.78684866 3.3760002
-0.27512971 0.78614944 3.3730001
-0.26604053 0.78521717 3.3690002
-0.25445211 0.77659351 3.3320003
-0.24600676 0.77729273 3.3350003
-0.23519734 0.77030057 3.3050001
-0.22666949 0.77053368 3.3060002
-0.21833432 0.77146596 3.3100002
-0.2066202 0.76004547 3.2610002
-0.19801669 0.7595793 3.2590001
-0.18948174 0.75934625 3.2580001
-0.18095201 0.75911319 3.2570002
-0.17253339 0.75934625 3.2580001
-0.16415992 0.75981241 3.2600002
-0.15577604 0.76027852 3.2620001
-0.14747208 0.7612108 3.2660003
-0.13910475 0.76190996 3.2690001
-0.13072181 0.76260918 3.2720001
-0.12224858 0.7628423 3.2730002
-0.11373538 0.7628423 3.2730002
-0.10522218 0.7628423 3.2730002
-0.096915826 0.7644738 3.2800002
-0.087144881 0.75375253 3.2340002
-0.077929728 0.74606121 3.2010002
-0.067494594 0.72345322 3.1040001
-0.012632357 0.47966069 2.0580001
-0.0072900341 0.48035991 2.0610001
0.0033099006 0.46334568 1.988
0.0084636984 0.4624134 1.9840001
0.013610423 0.46194729 1.9820001
0.018756209 0.46171421 1.9810001
0.023872657 0.46101499 1.978
0.029032178 0.46124807 1.9790001
0.034196906 0.46148115 1.9800001
0.039605297 0.46451107 1.9930001
0.044856582 0.46521026 1.9960001
0.050098401 0.46567643 1.9980001
0.056208558 0.47336778 2.0310001
0.061612368 0.47430006 2.0350001
0.067234255 0.47663075 2.0450001
0.072375983 0.47546545 2.0400002
0.44128335 0.81295264 3.4880002
0.44996843 0.81225342 3.4850001
0.45876962 0.81178731 3.4830003
0.4676947 0.81155419 3.4820001
0.47620386 0.81062192 3.4780002
0.48385504 0.8082912 3.4680002
0.48946455 0.80269748 3.4440002
0.50073808 0.80642664 3.4600003
0.50826442 0.80409586 3.45
0.51094121 0.79430693 3.4080002
0.52087319 0.79593843 3.4150002
0.52944547 0.79547226 3.4130001
0.53169829 0.78568327 3.3710001
0.54126799 0.78684866 3.3760002
0.54956037 0.78614944 3.3730001
0.55734044 0.784751 3.3670001
0.5605498 0.77705961 3.3340001
0.56973386 0.77775884 3.3370001
0.57182688 0.76890218 3.2990003
0.57987988 0.76820296 3.2960002
0.5779193 0.75445175 3.2370002
0.58706337 0.75538403 3.2410002
0.58777636 0.74559504 3.1990001
0.58864361 0.73627216 3.1590002
0.59629339 0.73557293 3.1560001
0.59722376 0.72671622 3.118
0.60048026 0.72088945 3.0930002
0.60222948 0.71343118 3.0610001
0.60022408 0.70177764 3.0110002
0.59553522 0.68732721 2.9490001
0.58950108 0.67171144 2.8820002
0.57379687 0.64560747 2.7700002
0.52832419 0.57988137 2.4880002
0.50728196 0.55004823 2.3600001
0.49362326 0.52883869 2.2690001
0.48631591 0.51485443 2.2090001
0.48159224 0.50390011 2.1620002
0.48315924 0.49970481 2.1440001
0.4846327 0.49550956 2.1260002
0.48808751 0.4934119 2.1170001
0.49289441 0.49271268 2.1140001
0.49792147 0.49224651 2.112
0.50341487 0.49224651 2.112
0.50673962 0.4901489 2.1030002
0.5124532 0.49038196 2.1040001
0.51866424 0.49108118 2.1070001
0.5248909 0.4917804 2.1100001
0.53389823 0.4950434 2.1240001
0.54043865 0.49597567 2.128
0.54648685 0.49644184 2.1300001
0.55280453 0.49714103 2.1330001
0.55887604 0.49760714 2.135
0.56469369 0.49784026 2.1360002
0.5702495 0.49784026 2.1360002
0.57553571 0.49760714 2.135
0.58027244 0.49690798 2.1320002
0.58389437 0.49527645 2.125
0.58498365 0.49154735 2.1090002
0.58682954 0.48851743 2.0960002
0.58662981 0.48385599 2.0760002
0.58775187 0.48035991 2.0610001
0.59052253 0.47826225 2.052
0.58743888 0.47150317 2.023
0.59182179 0.47080395 2.02
0.58909518 0.46451107 1.9930001
0.59368271 0.4640449 1.9910001
0.59795898 0.46334568 1.988
0.60191631 0.4624134 1.9840001
0.60615885 0.46171421 1.9810001
0.60946 0.46031579 1.9750001
0.61366343 0.45961657 1.9720001
0.61847895 0.45938349 1.9710001
0.62455475 0.46008271 1.9740001
0.62713724 0.45821813 1.9660001
0.63353729 0.45915043 1.9700001
0.63833714 0.45891735 1.9690001
0.64966762 0.46334568 1.988
0.65615612 0.46427798 1.9920001
0.66299736 0.46544334 1.9970001
0.66919535 0.46614254 2
0.67507184 0.4666087 2.0020001
0.69013333 0.47336778 2.0310001
0.69130719 0.47057089 2.0190001
0.69759369 0.47127011 2.0220001
0.70424342 0.47220239 2.026
0.71126419 0.47336778 2.0310001
0.71725243 0.47383389 2.033
0.73888904 0.48455516 2.079
0.74895066 0.4875851 2.092
0.75655568 0.48898354 2.098
0.76382881 0.4901489 2.1030002
0.77039617 0.49084812 2.1060002
0.77771598 0.49201345 2.1110001
0.78469086 0.49294573 2.115
0.79168653 0.49387807 2.1190002
0.81412768 0.50436622 2.164
0.85399127 0.52184659 2.2390001
0.86211908 0.52324504 2.2450001
0.88651615 0.53443247 2.2930002
0.90649211 0.54282296 2.329
0.91921097 0.54678524 2.3460002
0.9257074 0.54701829 2.3470001
0.92903286 0.54538679 2.3400002
0.93511927 0.54538679 2.3400002
0.94040126 0.54492062 2.3380001
0.50538766 0.27176109 1.166
0.50885653 0.27199417 1.1670001
0.51145327 0.27176109 1.166
0.51492733 0.27199417 1.1670001
0.51885045 0.27246031 1.169
0.52323037 0.27315953 1.1720001
0.52717686 0.27362567 1.174
0.53113377 0.27409181 1.176
0.5355553 0.27479103 1.179
0.54044932 0.27572334 1.1830001
0.54490477 0.27642256 1.1860001
0.54983777 0.27735484 1.1900001
0.55386227 0.27782094 1.192
0.55836445 0.27852017 1.1950001
0.56288224 0.27921939 1.1980001
0.56741565 0.27991861 1.2010001
0.57148957 0.28038475 1.2030001
0.57605165 0.28108397 1.2060001
0.58014899 0.28155011 1.2080001
0.58425671 0.28201625 1.21
0.58788949 0.28224933 1.2110001
0.59152734 0.28248239 1.212
0.59467977 0.28248239 1.212
0.59783226 0.28248239 1.212
0.6004889 0.28224933 1.2110001
0.60314023 0.28201625 1.21
0.60628754 0.28201625 1.21
0.60943478 0.28201625 1.21
0.61308831 0.28224933 1.2110001
-1.565352 0.70088953 2.9740002
-1.5570925 0.70065379 2.973
-1.5483174 0.7001825 2.9710002
-1.5395527 0.69971108 2.9690001
-1.5307984 0.69923979 2.9670002
-1.5056275 0.6912269 2.9330001
-1.4969772 0.69075561 2.9310002
-1.4878291 0.69004858 2.9280002
-1.4792022 0.68957722 2.9260001
-1.4554975 0.68203568 2.8940001
-1.4474698 0.68180001 2.8930001
-1.4394473 0.68156439 2.8920002
-1.4319251 0.68156439 2.8920002
-1.424403 0.68156439 2.8920002
-1.4389275 0.69216961 2.937
-1.4298264 0.69146264 2.9340003
-1.4503092 0.70513159 2.9920001
-1.4637406 0.71550119 3.0360003
-1.4740658 0.72445673 3.0740001
-1.4894396 0.73600465 3.1230001
-1.5050328 0.74778825 3.1730001
-1.5142334 0.75650811 3.21
-1.5302786 0.76876307 3.2620001
-1.5367227 0.7763046 3.2940001
-1.5323302 0.77842569 3.3030002
-1.5338879 0.78361046 3.325
-1.5316616 0.78690988 3.3390002
-1.5348357 0.79303735 3.3650002
-1.5274439 0.79374439 3.3680003
-1.5389746 0.8043496 3.4130001
-1.5314423 0.80505663 3.4160001
-1.5238943 0.80576366 3.4190001
-1.5247499 0.81094849 3.4410002
-1.5219668 0.81424785 3.4550002
-1.5142939 0.81495488 3.4580002
-1.5061703 0.81542623 3.4600003
-1.4993341 0.81660461 3.4650002
-1.4907516 0.81684023 3.4660001
-1.482164 0.81707597 3.4670002
-1.4735711 0.81731158 3.4680002
-1.4860882 0.82933086 3.5190001
-1.4773549 0.8295666 3.5200002
-1.479044 0.83569407 3.5460002
-1.4810121 0.84205723 3.5730002
-1.4717187 0.84205723 3.5730002
-1.4796157 0.85195547 3.6150002
-1.4787536 0.85690457 3.6360002
-1.4781864 0.86208934 3.6580002
-1.4775046 0.86727411 3.6800001
-1.4679327 0.86727411 3.6800001
-1.4670794 0.87245893 3.7020001
-1.4665054 0.87787938 3.7250001
-1.4568164 0.87787938 3.7250001
-1.4471276 0.87787938 3.7250001
-1.4374387 0.87787938 3.7250001
-1.4189342 0.87245893 3.7020001
-1.40093 0.86727411 3.6800001
-1.3913583 0.86727411 3.6800001
-1.3735257 0.86208934 3.6580002
-1.3558077 0.85690457 3.6360002
-1.3307985 0.84700632 3.5940001
-1.3137289 0.84205723 3.5730002
-1.2938482 0.83522272 3.5440001
-1.2849926 0.83545834 3.5450001
-1.2610167 0.82579583 3.5040002
-1.239398 0.81754726 3.4690001
-1.2129959 0.80599934 3.4200001
-1.2030441 0.80529231 3.4170001
-1.1945058 0.80552799 3.4180002
-1.181453 0.80269992 3.4060001
-1.1722497 0.80246425 3.4050002
-1.1637347 0.80269992 3.4060001
-1.1552147 0.8029356 3.4070001
-1.1473624 0.80364257 3.4100001
-1.1488427 0.81094849 3.4410002
-1.140555 0.81141979 3.4430001
-1.1424457 0.81919694 3.4760001
-1.1340566 0.81966835 3.4780002
-1.1259806 0.82037538 3.4810002
-1.117889 0.82108235 3.4840002
-1.1094635 0.82155371 3.4860001
-1.1041843 0.82438177 3.4980001
-1.0950859 0.82438177 3.4980001
-1.0831932 0.82226074 3.4890001
-1.0707318 0.81966835 3.4780002
-1.0662643 0.82320344 3.4930003
-1.0571789 0.82320344 3.4930003
-1.0480934 0.82320344 3.4930003
-1.0387106 0.82296771 3.4920001
-1.0293329 0.82273209 3.4910002
-1.0193759 0.82202506 3.4880002
-1.0100138 0.82178938 3.4870002
-1.0003698 0.82131803 3.4850001
-0.9901675 0.82037538 3.4810002
-0.98026776 0.81966835 3.4780002
-0.97038364 0.81896132 3.4750001
-0.96051502 0.81825429 3.4720001
-0.9509362 0.817783 3.4700003
-0.94136769 0.81731158 3.4680002
-0.93180954 0.81684023 3.4660001
-0.92199564 0.8161332 3.4630001
-0.91272467 0.81589758 3.4620001
-0.89536649 0.80835605 3.4300001
-0.88670349 0.80859172 3.4310002
-0.87726766 0.80812037 3.4290001
-0.85467386 0.79539412 3.3750002
-0.84865236 0.79798651 3.3860002
-0.82397103 0.78290349 3.3220003
-0.80526763 0.77324086 3.2810001
-0.79649079 0.77300525 3.2800002
-0.77835011 0.76357836 3.2400002
-0.75946701 0.7532087 3.1960001
-0.75091904 0.75297308 3.1950002
-0.73493862 0.74519587 3.1620002
-0.72625446 0.74472451 3.1600001
-0.71780795 0.74448884 3.1590002
-0.70397568 0.73859704 3.1340001
-0.695602 0.73836136 3.1330001
-0.68701404 0.73789001 3.131
-0.67821985 0.73718303 3.1280003
-0.66965532 0.73671168 3.1260002
-0.66110116 0.73624033 3.1240001
-0.65276659 0.73600465 3.1230001
-0.63556117 0.72563511 3.0790002
-0.62592196 0.7237497 3.0710001
-0.61793423 0.7237497 3.0710001
-0.60895336 0.72257137 3.0660002
-0.60019451 0.72162861 3.062
-0.59164995 0.72092164 3.0590003
-0.58331168 0.72045028 3.0570002
-0.57517219 0.72021461 3.0560002
-0.56722337 0.72021461 3.0560002
-0.56531388 0.72799182 3.0890002
-0.55764008 0.72846311 3.0910001
-0.5558235 0.73671168 3.1260002
-0.54839349 0.73765433 3.1300001
-0.54681122 0.74660993 3.1680002
-0.54418123 0.75438714 3.2010002
-0.54271877 0.76404965 3.2420001
-0.53543985 0.76569933 3.2490001
-0.5307197 0.77111983 3.2720001
-0.52380514 0.77347654 3.2820001
-0.51935047 0.77960402 3.3080001
-0.51151824 0.7807824 3.3130002
-0.50396359 0.78243214 3.3200002
-0.49861044 0.78761691 3.3420002
-0.49138367 0.78997362 3.3520002
-0.48842475 0.79940051 3.3920002
-0.47988477 0.79987186 3.3940001
-0.47411025 0.80505663 3.4160001
-0.46685943 0.80788475 3.4280002
-0.46342021 0.81754726 3.4690001
-0.45426622 0.81731158 3.4680002
-0.44704324 0.820611 3.4820001
-0.43874115 0.82202506 3.4880002
-0.4299151 0.82249641 3.4900002
-0.42119926 0.82320344 3.4930003
-0.41234979 0.82367474 3.4950001
-0.40337452 0.82391042 3.4960001
-0.39416853 0.82367474 3.4950001
-0.38518807 0.82391042 3.4960001
-0.37695548 0.82579583 3.5040002
-0.36469212 0.81872565 3.4740002
-0.35514423 0.81754726 3.4690001
-0.34592173 0.81707597 3.4670002
-0.33340561 0.80859172 3.4310002
-0.32287371 0.80458534 3.4140003
-0.31362587 0.80364257 3.4100001
-0.3030583 0.79916489 3.3910003
-0.29371753 0.79775083 3.3850002
-0.28423968 0.79586542 3.3770001
-0.27512971 0.79492271 3.3730001
-0.26604053 0.79398006 3.3690002
-0.25697219 0.79303735 3.3650002
-0.24600676 0.78596723 3.3350003
-0.23697644 0.78478885 3.3300002
-0.22735512 0.78148943 3.3160002
-0.2185322 0.7807824 3.3130002
-0.20858438 0.77583325 3.2920001
-0.19983949 0.77512628 3.2890003
-0.19128467 0.77512628 3.2890003
-0.18272987 0.77512628 3.2890003
-0.17417505 0.77512628 3.2890003
-0.16572094 0.77559763 3.2910001
-0.1573042 0.7763046 3.2940001
-0.14887184 0.77701163 3.2970002
-0.14033878 0.77724731 3.2980001
-0.13311891 0.7852602 3.3320003
-0.12411611 0.78313911 3.3230002
-0.1153686 0.78243214 3.3200002
-0.10666886 0.78196073 3.3180001
-0.096915826 0.77300525 3.2800002
-0.088357471 0.77276951 3.279
-0.078733131 0.76216429 3.2340002
-0.068886243 0.74660993 3.1680002
-0.059114683 0.72775608 3.0880001
-0.049345739 0.7030105 2.983
-0.03911924 0.66129655 2.8060002
-0.012626219 0.48477799 2.0570002
0.003304906 0.46780956 1.9850001
0.0084764967 0.46828091 1.9870001
0.013589821 0.46639553 1.9790001
0.018727805 0.46615985 1.978
0.023848519 0.4656885 1.9760001
0.028988168 0.4656885 1.9760001
0.034145091 0.46592417 1.9770001
0.039545681 0.46898794 1.9900001
0.044766691 0.46945927 1.9920001
0.049998105 0.46993062 1.9940001
0.40127814 0.81448352 3.4560001
0.41181058 0.81754726 3.4690001
0.4213188 0.81848997 3.473
0.43084791 0.81943268 3.4770002
0.44090381 0.82131803 3.4850001
0.44945198 0.82037538 3.4810002
0.45837444 0.82013971 3.4800003
0.46742609 0.82013971 3.4800003
0.47606695 0.81943268 3.4770002
0.48371553 0.81707597 3.4670002
0.49287546 0.81731158 3.4680002
0.50102752 0.81589758 3.4620001
0.50870639 0.81377649 3.4530001
0.51588869 0.81094849 3.4410002
0.52133077 0.80552799 3.4180002
0.52991086 0.80505663 3.4160001
0.53674555 0.80199289 3.4030001
0.541749 0.79633677 3.3790002
0.55004913 0.79562974 3.3760002
0.55700946 0.79303735 3.3650002
0.5605498 0.78573149 3.3340001
0.5702461 0.78714556 3.3400002
0.57182688 0.77748299 3.2990003
0.57952797 0.7763046 3.2940001
0.58470362 0.77182686 3.2750001
0.58706337 0.76381397 3.2410002
0.58796012 0.7541514 3.2
0.58864361 0.74448884 3.1590002
0.59648234 0.74401748 3.1570001
0.59798992 0.73576897 3.1220002
0.60028613 0.72869885 3.0920002
0.60203272 0.72115731 3.0600002
0.60022408 0.70960939 3.0110002
0.59573716 0.69523335 2.95
0.58929652 0.67897195 2.881
0.57358968 0.65257663 2.7690001
0.55079806 0.6188755 2.6260002
0.48631591 0.52060014 2.2090001
0.48203769 0.50999486 2.164
0.48203251 0.50410312 2.1390002
0.48417678 0.50056803 2.1240001
0.48762637 0.49844694 2.115
0.49242806 0.49773991 2.112
0.49744999 0.49726862 2.1100001
0.50293821 0.49726862 2.1100001
0.50842637 0.49726862 2.1100001
0.51440167 0.49773991 2.112
0.52063352 0.49844694 2.115
0.52688104 0.49915397 2.118
0.53364688 0.50033236 2.1230001
0.54018468 0.501275 2.1270001
0.54648685 0.50198203 2.1300001
0.55306369 0.50292474 2.1340001
0.55887604 0.50316036 2.135
0.56469369 0.50339609 2.1360002
0.5702495 0.50339609 2.1360002
0.57526612 0.50292474 2.1340001
0.58000022 0.50221771 2.131
0.58416921 0.50103939 2.1260002
0.58526099 0.49726862 2.1100001
0.58682954 0.4939692 2.0960002
0.58662981 0.48925576 2.0760002
0.58775187 0.48572066 2.0610001
0.58649361 0.48030019 2.0380001
0.58714849 0.47652942 2.0220001
0.59035695 0.47487974 2.0150001
0.5887996 0.46945927 1.9920001
0.59308636 0.46875224 1.9890001
0.59675586 0.46757388 1.9840001
0.60100615 0.46686685 1.9810001
0.60493493 0.46592417 1.9770001
0.60853422 0.46474582 1.9720001
0.6130411 0.4642745 1.9700001
0.61785138 0.46403879 1.9690001
0.62328917 0.4642745 1.9700001
0.62777519 0.46380311 1.9680001
0.6328941 0.46380311 1.9680001
0.63833714 0.46403879 1.9690001
0.64803362 0.4673382 1.983
0.65450913 0.46828091 1.9870001
0.66100532 0.46922359 1.9910001
0.66752243 0.4701663 1.9950001
0.67372304 0.4708733 1.9980001
0.67959952 0.47134462 2
0.68891042 0.47417271 2.0120001
0.69552368 0.47511539 2.016
0.70250547 0.47629377 2.0210001
0.70951313 0.4774721 2.026
0.71584123 0.47817913 2.029
0.73675668 0.48854876 2.0730002
0.7396425 0.48689899 2.066
0.74465561 0.48666334 2.0650001
0.76346552 0.4953832 2.102
0.77003032 0.4960902 2.105
0.77697921 0.49703294 2.1090002
0.82880008 0.51918614 2.2030001
0.88055193 0.54039663 2.2930002
0.90236747 0.5500592 2.3340001
0.90804911 0.54982352 2.3330002
0.91411728 0.54982352 2.3330002
0.92057991 0.5500592 2.3340001
0.9286359 0.55123758 2.3390002
0.93432003 0.55100185 2.3380001
0.94281465 0.55241591 2.3440001
0.94769698 0.55170888 2.3410001
0.93952602 0.54346037 2.306
0.94798416 0.54487437 2.312
0.95234728 0.54393172 2.3080001
0.9380042 0.53238374 2.2590001
0.9321807 0.52578497 2.2310002
0.52367681 0.27644363 1.1730001
0.52717686 0.27667931 1.174
0.53113377 0.27715063 1.176
0.5355553 0.27785766 1.179
0.54044932 0.27880037 1.1830001
0.54490477 0.2795074 1.1860001
0.54983777 0.28045008 1.1900001
0.55432695 0.28115708 1.1930001
0.55836445 0.28162843 1.1950001
0.56288224 0.28233543 1.1980001
0.56788808 0.28327811 1.202
0.57196468 0.28374949 1.2040001
0.57652926 0.28445649 1.207
0.58110946 0.28516349 1.21
0.58473963 0.2853992 1.2110001
0.58886039 0.28587052 1.2130001
0.59201545 0.28587052 1.2130001
0.5951705 0.28587052 1.2130001
0.59832555 0.28587052 1.2130001
0.60098475 0.28563485 1.212
0.60363877 0.2853992 1.2110001
0.60678864 0.2853992 1.2110001
0.60993844 0.2853992 1.2110001
0.61308831 0.2853992 1.2110001
-1.5800896 0.71529663 3.0020001
-1.5712337 0.71482009 3.0000002
-1.5623883 0.71434355 2.9980001
-1.5535532 0.71386695 2.9960001
-1.5442127 0.71315217 2.993
-1.5343746 0.71219909 2.9890001
-1.5250678 0.71148425 2.9860001
-1.5157765 0.71076941 2.983
-1.491335 0.70290643 2.95
-1.4826561 0.70242989 2.9480002
-1.4739876 0.70195329 2.9460001
-1.4658272 0.70171505 2.9450002
-1.4576721 0.70147681 2.9440002
-1.4500146 0.70147681 2.9440002
-1.4389275 0.69980884 2.937
-1.4580915 0.71291387 2.9920001
-1.4604886 0.71791768 3.0130002
-1.4782045 0.73054618 3.0660002
-1.4927673 0.741745 3.1130002
-1.4884857 0.74365115 3.1210001
-1.5055072 0.75627971 3.1740003
-1.5335741 0.77462673 3.2510002
-1.5307477 0.77748603 3.2630002
-1.5367227 0.78487247 3.2940001
-1.5467116 0.79440337 3.3340001
-1.5361946 0.7934503 3.3300002
-1.5458819 0.8029812 3.3700001
-1.5362041 0.80250472 3.3680003
-1.5288043 0.8032195 3.3710001
-1.5398766 0.81370354 3.4150002
-1.5323389 0.81441838 3.4180002
-1.5243399 0.81489486 3.4200001
-1.5225343 0.81870729 3.4360001
-1.5237288 0.82418758 3.4590001
-1.5151699 0.82442588 3.4600003
-1.5066055 0.82466412 3.4610002
-1.4993341 0.82561719 3.4650002
-1.5062355 0.83443332 3.5020001
-1.4971267 0.83443332 3.5020001
-1.4875929 0.83419502 3.5010002
-1.497068 0.84467906 3.5450001
-1.4886868 0.8451556 3.5470002
-1.479044 0.84491736 3.5460002
-1.4810121 0.85135072 3.5730002
-1.4803685 0.85635448 3.5940001
-1.4796157 0.86135823 3.6150002
-1.4787536 0.86636198 3.6360002
-1.4781864 0.87160397 3.6580002
-1.4775046 0.87684596 3.6800001
-1.4767084 0.88208801 3.7020001
-1.4761941 0.8875683 3.7250001
-1.4751667 0.89281029 3.7470002
-1.4654205 0.89281029 3.7470002
-1.4556744 0.89281029 3.7470002
-1.4459283 0.89281029 3.7470002
-1.4277499 0.8875683 3.7250001
-1.418061 0.8875683 3.7250001
-1.3996762 0.88208801 3.7020001
-1.3817863 0.87684596 3.6800001
-1.3640112 0.87160397 3.6580002
-1.3385744 0.86135823 3.6150002
-1.3214502 0.85635448 3.5940001
-1.3044355 0.85135072 3.5730002
-1.283905 0.84396422 3.5420001
-1.2631761 0.83633953 3.5100002
-1.2515455 0.83467162 3.5030003
-1.2261189 0.82371104 3.4570003
-1.202692 0.81394178 3.4160001
-1.1938069 0.81394178 3.4160001
-1.1821468 0.81203562 3.4080002
-1.1725938 0.81155908 3.4060001
-1.1640763 0.81179732 3.4070001
-1.1552147 0.81179732 3.4070001
-1.1470259 0.81227392 3.4090002
-1.1488427 0.81989866 3.4410002
-1.1412176 0.82085174 3.4450002
-1.1332431 0.82156658 3.4480002
-1.1239486 0.82132828 3.4470003
-1.1256572 0.82919133 3.4800003
-1.117889 0.83014441 3.4840002
-1.1094635 0.83062094 3.4860001
-1.1007119 0.83085924 3.4870002
-1.0950859 0.83348024 3.4980001
-1.0825723 0.83085924 3.4870002
-1.0762732 0.83300364 3.4960001
-1.0644327 0.83085924 3.4870002
-1.0559682 0.83133572 3.4890001
-1.0468931 0.83133572 3.4890001
-1.0378182 0.83133572 3.4890001
-1.0284482 0.83109748 3.4880002
-1.0187913 0.83062094 3.4860001
-1.0094346 0.83038265 3.4850001
-0.99979579 0.82990617 3.4830003
-0.98988307 0.82919133 3.4800003
-0.97998589 0.82847649 3.4770002
-0.9701044 0.82776165 3.4740002
-0.9602384 0.82704687 3.4710002
-0.95066208 0.82657027 3.4690001
-0.94136769 0.82633203 3.4680002
-0.93180954 0.82585543 3.4660001
-0.91267723 0.81680113 3.4280002
-0.90402454 0.81703937 3.4290001
-0.89536649 0.81727761 3.4300001
-0.87739968 0.80893809 3.3950002
-0.8685692 0.80893809 3.3950002
-0.85416734 0.80369604 3.3730001
-0.83135849 0.79035276 3.3170002
-0.81504178 0.78296632 3.2860003
-0.79643202 0.77319705 3.2450001
-0.78823441 0.77343529 3.2460001
-0.7689811 0.76271307 3.2010002
-0.7528134 0.75485003 3.1680002
-0.73587716 0.74603385 3.131
-0.72750092 0.74579561 3.1300001
-0.71223503 0.73840916 3.0990002
-0.7034927 0.73769432 3.0960002
-0.6943168 0.73650295 3.0910001
-0.6851669 0.73531163 3.0860002
-0.67582351 0.73388195 3.0800002
-0.6667282 0.73269057 3.075
-0.65765893 0.73149925 3.0700002
-0.6486156 0.73030782 3.0650001
-0.6398074 0.72935474 3.0610001
-0.6312263 0.72863996 3.0580001
-0.6249029 0.73054618 3.0660002
-0.60847706 0.72053868 3.0240002
-0.60041291 0.72030038 3.0230002
-0.59235394 0.72006208 3.0220001
-0.58468705 0.72030038 3.0230002
-0.57720572 0.72077692 3.0250001
-0.56971401 0.72125345 3.0270002
-0.56221187 0.72172999 3.029
-0.5601896 0.72935474 3.0610001
-0.55800092 0.73697954 3.0930002
-0.55013371 0.73721778 3.0940001
-0.54856867 0.74603385 3.131
-0.54180568 0.74794012 3.1390002
-0.54435122 0.76295131 3.2020001
-0.53702712 0.76438093 3.2080002
-0.53609914 0.77510327 3.2530003
-0.53023309 0.77891558 3.2690001
-0.52444357 0.78296632 3.2860003
-0.51887947 0.78749347 3.3050001
-0.5113638 0.78916138 3.3120003
-0.50441897 0.79178238 3.3230002
-0.49816284 0.79559475 3.3390002
-0.49197006 0.79964542 3.3560002
-0.48885673 0.80893809 3.3950002
-0.48030895 0.80941463 3.3970001
-0.47341633 0.81275046 3.4110003
-0.46754038 0.81799245 3.4330001
-0.46021408 0.82085174 3.4450002
-0.45230138 0.8227579 3.4530001
-0.44704324 0.82966787 3.4820001
-0.43861535 0.83085924 3.4870002
-0.42966872 0.83109748 3.4880002
-0.42083749 0.83157408 3.4900002
-0.41199583 0.83205056 3.4920001
-0.402913 0.83205056 3.4920001
-0.39371741 0.83181232 3.4910002
-0.38485757 0.83228886 3.4930003
-0.37469634 0.82990617 3.4830003
-0.36490208 0.82823819 3.4760001
-0.35289198 0.82132828 3.4470003
-0.34352708 0.82037514 3.4430001
-0.3337943 0.81846899 3.4350002
-0.32268456 0.8129887 3.4120002
-0.3135339 0.81227392 3.4090002
-0.3035945 0.80941463 3.3970001
-0.2932837 0.80536395 3.3800001
-0.28415552 0.80441087 3.3760002
-0.27512971 0.80369604 3.3730001
-0.26604053 0.80274296 3.3690002
-0.25697219 0.80178988 3.3650002
-0.24807216 0.80131334 3.3630002
-0.2370476 0.79368854 3.3310001
-0.22742368 0.79035276 3.3170002
-0.21833432 0.78868484 3.3100002
-0.20864776 0.78463417 3.2930002
-0.19983949 0.78368109 3.2890003
-0.19122651 0.7834428 3.2880001
-0.1826743 0.7834428 3.2880001
-0.1741221 0.7834428 3.2880001
-0.16562024 0.78368109 3.2890003
-0.15902337 0.7934503 3.3300002
-0.15049738 0.79416513 3.3330002
-0.14208345 0.79559475 3.3390002
-0.13335861 0.79535645 3.3380001
-0.12504987 0.79773921 3.348
-0.11644584 0.79845405 3.3510001
-0.10766546 0.79797751 3.3490002
-0.09800908 0.79035276 3.3170002
-0.089354493 0.79011446 3.3160002
-0.079999097 0.78296632 3.2860003
-0.070712768 0.77486497 3.2520001
-0.060952451 0.7586624 3.1840003
-0.052670747 0.7586624 3.1840003
-0.042618502 0.72840166 3.0570002
-0.0018740665 0.47702327 2.0020001
0.003299911 0.47225782 1.9820001
0.0084722303 0.4732109 1.9860001
0.013576088 0.47106645 1.9770001
0.018699402 0.47058991 1.9750001
0.023824383 0.47035161 1.9740001
0.028958829 0.47035161 1.9740001
0.034093276 0.47035161 1.9740001
0.039486062 0.47344917 1.9870001
0.04469927 0.47392571 1.9890001
0.04992288 0.47440225 1.9910001
0.17976686 0.83848393 3.5190001
0.18891992 0.83848393 3.5190001
0.25838324 0.85635448 3.5940001
0.26773134 0.85635448 3.5940001
0.27707949 0.85635448 3.5940001
0.39081335 0.82037514 3.4430001
0.40011704 0.82108998 3.4460001
0.40943635 0.82180482 3.4490001
0.41864994 0.82228136 3.4510002
0.42787397 0.8227579 3.4530001
0.44065079 0.82990617 3.4830003
0.44893554 0.82847649 3.4770002
0.45797929 0.82847649 3.4770002
0.46702313 0.82847649 3.4770002
0.47579309 0.82799995 3.4750001
0.48455262 0.82752335 3.473
0.49287546 0.82633203 3.4680002
0.50146168 0.82561719 3.4650002
0.50944299 0.82394928 3.4580002
0.51513904 0.81870729 3.4360001
0.52194089 0.81537145 3.4220002
0.53053135 0.81489486 3.4200001
0.53595698 0.80965292 3.3980002
0.54255062 0.80631703 3.3840001
0.55070084 0.80536395 3.3800001
0.55634725 0.80083674 3.3610001
0.56391239 0.79916883 3.3540001
0.57109976 0.79702443 3.3450003
0.57546687 0.7910676 3.3200002
0.57900017 0.78415763 3.2910001
0.58506072 0.7808218 3.2770002
0.58724451 0.77248222 3.2420001
0.58814389 0.76271307 3.2010002
0.59572446 0.76176 3.1970003
0.59138095 0.74579561 3.1300001
0.59856457 0.74460429 3.1250002
0.60009199 0.73650295 3.0910001
0.60183603 0.72887826 3.0590003
0.60022408 0.71744108 3.0110002
0.59573716 0.70290643 2.95
0.58459198 0.68098527 2.858
0.57317543 0.65930241 2.7670002
0.54618359 0.62046385 2.6040001
0.48609576 0.52610761 2.2080002
0.48203769 0.51562357 2.164
0.48180711 0.50942844 2.138
0.48394886 0.50585437 2.1230001
0.4871653 0.50347161 2.1130002
0.49196178 0.50275683 2.1100001
0.49721426 0.50251853 2.1090002
0.50246143 0.50228024 2.108
0.50818545 0.50251853 2.1090002
0.51391459 0.50275683 2.1100001
0.52038741 0.50370991 2.1140001
0.52688104 0.50466299 2.118
0.53364688 0.50585437 2.1230001
0.54018468 0.50680745 2.1270001
0.54674339 0.50776052 2.131
0.55306369 0.50847536 2.1340001
0.55913788 0.5089519 2.1360002
0.56495804 0.5091902 2.1370001
0.5702495 0.5089519 2.1360002
0.57553571 0.5087136 2.135
0.58027244 0.50799882 2.1320002
0.58444399 0.50680745 2.1270001
0.58553833 0.50299507 2.1110001
0.58710951 0.49965924 2.0970001
0.58747745 0.4953703 2.079
0.58746666 0.49084315 2.0600002
0.5882203 0.48703077 2.0440001
0.58743888 0.48202699 2.023
0.58449733 0.47535536 1.9950001
0.5873217 0.47344917 1.9870001
0.59129727 0.47249606 1.983
0.59555274 0.47178128 1.9800001
0.59948921 0.47082818 1.9760001
0.60401696 0.47035161 1.9740001
0.60791707 0.46939853 1.9700001
0.61272985 0.46916026 1.9690001
0.61753756 0.46892196 1.9680001
0.62265635 0.46892196 1.9680001
0.62745625 0.46868372 1.9670001
0.63257253 0.46868372 1.9670001
0.63801289 0.46892196 1.9680001
0.64378536 0.46939853 1.9700001
0.65319151 0.47249606 1.983
0.65934539 0.4732109 1.9860001
0.66584945 0.47416401 1.9900001
0.67203707 0.47487882 1.9930001
0.67824036 0.47559363 1.9960001
0.6865136 0.47773811 2.0050001
0.69310868 0.47869119 2.0090001
0.70007223 0.47988257 2.0140002
0.70741189 0.48131216 2.02
0.71372437 0.48202699 2.023
0.73569047 0.49322587 2.0700002
0.73928452 0.49203449 2.0650001
0.74465561 0.49203449 2.0650001
0.90236747 0.55613005 2.3340001
0.90649211 0.55493861 2.329
0.91411728 0.55589175 2.3330002
0.92057991 0.55613005 2.3340001
0.92784178 0.55684483 2.3370001
0.93352079 0.55660659 2.3360002
0.94160795 0.55779791 2.3410001
0.94688737 0.55732143 2.3390002
0.93871123 0.54898185 2.3040001
0.94798416 0.550888 2.312
0.95152199 0.54945832 2.306
0.93924993 0.53897434 2.2620001
0.93343419 0.53230274 2.2340002
0.92957503 0.52682245 2.2110002
0.92432708 0.52062732 2.1850002
0.91426176 0.51181114 2.148
0.91770768 0.51061982 2.1430001
0.90949494 0.50299507 2.1110001
0.90588355 0.49799135 2.0900002
0.90754443 0.49298757 2.069
0.90983731 0.49131966 2.062
0.54490477 0.28259221 1.1860001
0.54983777 0.28354532 1.1900001
0.55432695 0.28426012 1.1930001
0.55836445 0.28473666 1.1950001
0.56288224 0.2854515 1.1980001
0.56788808 0.28640458 1.202
0.57243967 0.28711939 1.205
0.57700694 0.28783423 1.2080001
0.58158976 0.28854904 1.2110001
0.58570528 0.2890256 1.2130001
0.58934587 0.28926387 1.2140001
0.59299153 0.28950214 1.215
0.59615177 0.28950214 1.215
0.59931207 0.28950214 1.215
0.6014806 0.2890256 1.2130001
0.60413718 0.28878731 1.212
0.60678864 0.28854904 1.2110001
0.60993844 0.28854904 1.2110001
0.61308831 0.28854904 1.2110001
-1.5958799 0.73033112 3.0320001
-1.5858985 0.72936767 3.0280001
-1.5785437 0.72960854 3.029
-1.5711838 0.7298494 3.0300002
-1.5633026 0.7298494 3.0300002
-1.5549082 0.72960854 3.029
-1.5460082 0.72912681 3.0270002
-1.5371184 0.72864503 3.0250001
-1.5140842 0.7214188 2.9950001
-1.5052882 0.72093701 2.993
-1.4965028 0.72045529 2.9910002
-1.4882252 0.72021443 2.9900002
-1.4754969 0.71780574 2.9800003
-1.4726712 0.72021443 2.9900002
-1.4648941 0.72021443 2.9900002
-1.479534 0.73129469 3.0360003
-1.4832708 0.73707563 3.0600002
-1.4888111 0.74382007 3.0880001
-1.4927673 0.74984199 3.1130002
-1.5109013 0.76309007 3.1680002
-1.518314 0.77103895 3.2010002
-1.5288569 0.78067392 3.2410002
-1.5471669 0.79440373 3.2980001
-1.5381223 0.79416287 3.2970002
-1.5476395 0.80355698 3.3360002
-1.5380398 0.80307519 3.3340001
-1.547258 0.8124693 3.3730001
-1.539853 0.81319195 3.3760002
-1.531979 0.81367373 3.3780003
-1.5403274 0.82282692 3.4160001
-1.5323389 0.82330871 3.4180002
-1.5421686 0.8334254 3.4600003
-1.5344983 0.83414799 3.4630001
-1.5250503 0.83390713 3.4620001
-1.5156077 0.83366627 3.4610002
-1.5240179 0.84330124 3.5010002
-1.5157771 0.84378302 3.5030003
-1.5066657 0.84378302 3.5030003
-1.4971267 0.8435421 3.5020001
-1.5054389 0.85341799 3.5430002
-1.497068 0.85389972 3.5450001
-1.4886868 0.85438144 3.5470002
-1.4903057 0.86064422 3.5730002
-1.4810121 0.86064422 3.5730002
-1.4803685 0.86570257 3.5940001
-1.4796157 0.87076092 3.6150002
-1.4787536 0.87581927 3.6360002
-1.4781864 0.88111854 3.6580002
-1.4863375 0.89171702 3.7020001
-1.485883 0.89725709 3.7250001
-1.4849126 0.90255636 3.7470002
-1.4751667 0.90255636 3.7470002
-1.4744155 0.90809649 3.7700002
-1.4646097 0.90809649 3.7700002
-1.4548038 0.90809649 3.7700002
-1.4361823 0.90255636 3.7470002
-1.4264362 0.90255636 3.7470002
-1.4083722 0.89725709 3.7250001
-1.3900471 0.89171702 3.7020001
-1.3640112 0.88111854 3.6580002
-1.3463504 0.87581927 3.6360002
-1.3291717 0.87076092 3.6150002
-1.3121022 0.86570257 3.5940001
-1.2853551 0.85414058 3.5460002
-1.2743323 0.85293621 3.5410001
-1.2508309 0.84330124 3.5010002
-1.2264736 0.83294368 3.4580002
-1.20234 0.82258606 3.4150002
-1.1934574 0.82258606 3.4150002
-1.1824936 0.82114083 3.4090002
-1.1729381 0.82065904 3.4070001
-1.1644181 0.82089996 3.4080002
-1.1555538 0.82089996 3.4080002
-1.1470259 0.82114083 3.4090002
-1.1488427 0.82884878 3.4410002
-1.1418802 0.83029407 3.4470003
-1.1339004 0.8310166 3.45
-1.1239486 0.83029407 3.4470003
-1.1253337 0.83800197 3.4790001
-1.117889 0.8392064 3.4840002
-1.1097817 0.83992904 3.4870002
-1.1010276 0.84016985 3.4880002
-1.0919553 0.84016985 3.4880002
-1.0822618 0.83968812 3.4860001
-1.0731946 0.83968812 3.4860001
-1.0638223 0.83944726 3.4850001
-1.0553628 0.83992904 3.4870002
-1.0462931 0.83992904 3.4870002
-1.0372233 0.83992904 3.4870002
-1.0275637 0.83944726 3.4850001
-1.0182068 0.8392064 3.4840002
-1.0088552 0.83896554 3.4830003
-0.99922162 0.83848375 3.4810002
-0.98931414 0.8377611 3.4780002
-0.97942221 0.83703852 3.4750001
-0.9695459 0.83631587 3.4720001
-0.95968509 0.83559322 3.4690001
-0.95011407 0.83511156 3.4670002
-0.92969561 0.8249948 3.4250002
-0.92078698 0.8249948 3.4250002
-0.91241091 0.82547653 3.427
-0.89506072 0.81776857 3.3950002
-0.88623017 0.81776857 3.3950002
-0.86551148 0.80668837 3.3490002
-0.85628897 0.80620658 3.3470001
-0.84732997 0.80596572 3.3460002
-0.83110785 0.79873949 3.3160002
-0.80611253 0.7828418 3.2500002
-0.78980529 0.77513379 3.2180002
-0.77317888 0.76694411 3.1840003
-0.75648904 0.75851345 3.1490002
-0.73855549 0.74863756 3.108
-0.73047149 0.74863756 3.108
-0.71285796 0.73876178 3.0670002
-0.70442086 0.73828 3.0650001
-0.69576699 0.73755735 3.062
-0.68578106 0.73538953 3.0530002
-0.677396 0.73490775 3.0510001
-0.66880196 0.73418516 3.0480001
-0.66022354 0.73346251 3.0450001
-0.64866161 0.72936767 3.0280001
-0.64036244 0.72888595 3.0260003
-0.63228267 0.72864503 3.0250001
-0.62420815 0.72840416 3.0240002
-0.61593491 0.72792238 3.0220001
-0.60827589 0.7281633 3.0230002
-0.6002143 0.72792238 3.0220001
-0.59196198 0.72744066 3.0200002
-0.58430022 0.72768152 3.0210001
-0.57701492 0.72840416 3.0240002
-0.56952584 0.72888595 3.0260003
-0.56202626 0.72936767 3.0280001
-0.56037259 0.73755735 3.062
-0.55836171 0.74550623 3.095
-0.5556457 0.75273252 3.1250002
-0.54839349 0.75393683 3.1300001
-0.54681122 0.76309007 3.1680002
-0.54452121 0.77152067 3.2030001
-0.53702712 0.77272505 3.2080002
-0.53642869 0.78404611 3.2550001
-0.53023309 0.78741837 3.2690001
-0.52444357 0.79151326 3.2860003
-0.51856548 0.7956081 3.3030002
-0.51182699 0.79849857 3.3150001
-0.50441897 0.80042559 3.3230002
-0.50219113 0.81078321 3.3660002
-0.49240983 0.80909711 3.3590002
-0.48900071 0.81800944 3.3960001
-0.48059177 0.81873208 3.3990002
-0.47313872 0.82114083 3.4090002
-0.46781278 0.82740355 3.4350002
-0.46048126 0.83029407 3.4470003
-0.45649299 0.83944726 3.4850001
-0.44717166 0.83896554 3.4830003
-0.43848956 0.83968812 3.4860001
-0.42942235 0.83968812 3.4860001
-0.42047575 0.83992904 3.4870002
-0.41152391 0.84016985 3.4880002
-0.40245149 0.84016985 3.4880002
-0.39326629 0.83992904 3.4870002
-0.38045037 0.83173925 3.4530001
-0.37146896 0.83173925 3.4530001
-0.36227766 0.83125752 3.4510002
-0.35299435 0.83053493 3.4480002
-0.34362689 0.82957143 3.4440002
-0.33398867 0.82788533 3.4370003
-0.32268456 0.82186341 3.4120002
-0.3135339 0.82114083 3.4090002
-0.3038626 0.81897289 3.4000001
-0.2932837 0.81415546 3.3800001
-0.28407136 0.81295109 3.3750002
-0.27512971 0.8124693 3.3730001
-0.26611948 0.81174672 3.3700001
-0.25704855 0.81078321 3.3660002
-0.24637556 0.80452049 3.3400002
-0.23797274 0.80548394 3.3440001
-0.22605242 0.79416287 3.2970002
-0.21774065 0.79512638 3.3010001
