# .PCD v0.7 - Point Cloud Data file format
VERSION 0.7
FIELDS x y z
SIZE 4 4 4
TYPE F F F
COUNT 1 1 1
WIDTH 1519
HEIGHT 1
VIEWPOINT 0 0 0 1 0 0 0
POINTS 1519
DATA ascii
0.403368 0.11304929 1.4680001
0.55317402 0.14670224 1.9050001
0.56662548 0.14893551 1.9340001
0.57283819 0.14924355 1.9380001
0.57877356 0.14947458 1.9410001
0.58472455 0.1497056 1.9440001
0.5903877 0.14985962 1.9460001
0.5963673 0.15009065 1.9490001
0.60236245 0.15032168 1.9520001
0.60806203 0.1504757 1.9540001
0.61377209 0.15062971 1.9560001
0.61601222 0.14993663 1.9470001
0.62171435 0.15009065 1.9490001
0.62742704 0.15024467 1.9510001
0.63314998 0.15039869 1.9530001
0.63888341 0.1505527 1.955
0.64429784 0.15062971 1.9560001
0.65303743 0.15147682 1.9670001
0.65714985 0.15124579 1.9640001
0.6615839 0.15109177 1.9620001
0.66566777 0.15086074 1.9590001
0.6700784 0.15070672 1.9570001
0.67447859 0.1505527 1.955
0.67886841 0.15039869 1.9530001
0.68359804 0.15032168 1.9520001
0.68726403 0.15001364 1.9480001
0.6923309 0.15001364 1.9480001
0.69775569 0.15009065 1.9490001
0.70282513 0.15009065 1.9490001
0.7089842 0.15032168 1.9520001
0.71442717 0.15039869 1.9530001
0.72024381 0.1505527 1.955
0.72532886 0.1505527 1.955
0.73153472 0.15078373 1.9580001
0.7370038 0.15086074 1.9590001
0.74285686 0.15101476 1.9610001
0.74872035 0.15116878 1.9630001
0.75459421 0.1513228 1.9650002
0.7600919 0.15139981 1.9660001
0.76598394 0.15155382 1.9680001
0.77110273 0.15155382 1.9680001
0.7770105 0.15170784 1.9700001
0.78213453 0.15170784 1.9700001
0.7880578 0.15186186 1.9720001
0.79358929 0.15193887 1.973
0.79912597 0.15201588 1.9740001
0.80507523 0.1521699 1.9760001
0.81144494 0.15240093 1.9790001
0.81741768 0.15255494 1.9810001
0.823816 0.15278597 1.9840001
0.83064777 0.15309399 1.988
0.83665955 0.15324803 1.9900001
0.84310472 0.15347905 1.9930001
0.84956545 0.15371007 1.9960001
0.85518539 0.15378709 1.9970001
0.86037964 0.15378709 1.9970001
0.86427355 0.15355605 1.9940001
0.86815196 0.15332502 1.9910001
0.87157607 0.153017 1.9870001
0.87542057 0.15278597 1.9840001
0.87747419 0.15224691 1.9770001
0.87859845 0.15155382 1.9680001
0.88192111 0.15124579 1.9640001
0.89154601 0.15201588 1.9740001
0.89577198 0.15186186 1.9720001
0.90044433 0.15178485 1.9710001
0.90557098 0.15178485 1.9710001
0.91023564 0.15170784 1.9700001
0.91675353 0.15193887 1.973
0.92188543 0.15193887 1.973
0.92701727 0.15193887 1.973
0.93356645 0.1521699 1.9760001
0.93918115 0.15224691 1.9770001
0.94432342 0.15224691 1.9770001
0.94946569 0.15224691 1.9770001
0.95364219 0.15209289 1.9750001
0.95877928 0.15209289 1.9750001
0.96342826 0.15201588 1.9740001
0.96856266 0.15201588 1.9740001
0.97419047 0.15209289 1.9750001
0.97536057 0.15147682 1.9670001
0.98197222 0.15170784 1.9700001
0.98559308 0.15147682 1.9670001
0.99171662 0.15163083 1.9690001
0.99734432 0.15170784 1.9700001
1.0029771 0.15178485 1.9710001
1.0086153 0.15186186 1.9720001
-1.5137701 0.22895862 2.8760002
-1.5083843 0.22927706 2.8800001
-1.5040202 0.22975472 2.8860002
-1.4985878 0.23007315 2.8900001
-1.4926187 0.23031199 2.8930001
-1.4876606 0.23071004 2.8980002
-1.481655 0.23094887 2.901
-1.4761418 0.23126732 2.9050002
-1.4695969 0.23142652 2.9070001
-1.4630417 0.23158576 2.9090002
-1.456476 0.23174499 2.9110003
-1.4498997 0.23190419 2.9130001
-1.4428179 0.2319838 2.914
-1.4362236 0.23214303 2.9160001
-1.4305987 0.23246147 2.9200001
-1.4239784 0.23262069 2.9220002
-1.4183171 0.23293912 2.9260001
-1.4121529 0.23317796 2.9290001
-1.405973 0.23341678 2.9320002
-1.3997775 0.23365562 2.9350002
-1.3921435 0.23365562 2.9350002
-1.3915852 0.23484977 2.95
-1.394702 0.23668079 2.973
-1.3883687 0.23691963 2.9760001
-1.3838754 0.23747689 2.983
-1.3775005 0.23771572 2.9860001
-1.3871652 0.24074091 3.0240002
-1.3788435 0.24066131 3.0230002
-1.3709806 0.24066131 3.0230002
-1.3820561 0.24400492 3.0650001
-1.3740839 0.24400492 3.0650001
-1.3661116 0.24400492 3.0650001
-1.3523791 0.24296999 3.052
-1.3453217 0.24312922 3.0540001
-1.3360645 0.24289039 3.0510001
-1.335529 0.24424376 3.0680001
-1.3266835 0.24408454 3.0660002
-1.3182787 0.24400492 3.0650001
-1.3103064 0.24400492 3.0650001
-1.3036089 0.24424376 3.0680001
-1.2863383 0.24249235 3.0460002
-1.2750579 0.24185546 3.0380001
-1.2592311 0.24034286 3.0190001
-1.247648 0.23962638 3.0100002
-1.2377594 0.23922832 3.0050001
-1.2242131 0.23811379 2.9910002
-1.2123665 0.23731768 2.9810002
-1.1989554 0.23620315 2.9670002
-1.1840112 0.23477015 2.9490001
-1.1771386 0.23492938 2.9510002
-1.1647073 0.23397405 2.9390001
-1.1519449 0.23293912 2.9260001
-1.130646 0.23015277 2.891
-1.1223495 0.22999355 2.8890002
-1.1136774 0.22975472 2.8860002
-1.0923724 0.22688876 2.8500001
-1.0838174 0.22664993 2.8470001
-1.0756561 0.22649071 2.845
-1.0566161 0.22402279 2.8140001
-1.0455679 0.2232267 2.8040001
-1.0412369 0.22386357 2.812
-1.033555 0.22378397 2.8110001
-1.0262436 0.22378397 2.8110001
-1.0145823 0.22282864 2.799
-1.0058624 0.2225102 2.7950001
-0.99787802 0.22235098 2.7930002
-0.99025857 0.22227137 2.7920001
-0.98334867 0.22235098 2.7930002
-0.97643334 0.2224306 2.7940001
-0.96985984 0.22258982 2.7960002
-0.96362013 0.22282864 2.799
-0.96043986 0.22378397 2.8110001
-0.95346743 0.22386357 2.812
-0.94648987 0.22394319 2.8130002
-0.93883914 0.22386357 2.812
-0.92887497 0.2232267 2.8040001
-0.92355371 0.22370435 2.8100002
-0.91591859 0.22362474 2.809
-0.90925926 0.22378397 2.8110001
-0.90130603 0.22362474 2.809
-0.89654583 0.22426163 2.8170002
-0.88732475 0.22378397 2.8110001
-0.87970018 0.22370435 2.8100002
-0.87270164 0.22378397 2.8110001
-0.86508232 0.22370435 2.8100002
-0.86082602 0.22450046 2.8200002
-0.85409629 0.22465967 2.822
-0.84765637 0.2248985 2.825
-0.84120083 0.22513734 2.8280001
-0.83502448 0.22545576 2.832
-0.82853514 0.2256946 2.835
-0.82231987 0.22601305 2.8390002
-0.8152225 0.22609267 2.8400002
-0.80755115 0.22601305 2.8390002
-0.80016685 0.22601305 2.8390002
-0.79278249 0.22601305 2.8390002
-0.51119965 0.15436397 1.9390001
-0.49910811 0.1522145 1.9120001
-0.49258432 0.15173684 1.9060001
-0.48685923 0.151498 1.9030001
-0.48114973 0.15125917 1.9000001
-0.47545585 0.15102035 1.8970001
-0.46928149 0.15062229 1.8920001
-0.46386951 0.15046307 1.8900001
-0.45822501 0.15022424 1.8870001
-0.45307663 0.15014462 1.886
-0.44817108 0.15014462 1.886
-0.4432655 0.15014462 1.886
-0.43952212 0.15054268 1.891
-0.43529302 0.15078151 1.8940001
-0.43082112 0.15094073 1.8960001
-0.42476642 0.15054268 1.891
-0.42029193 0.15070191 1.8930001
-0.41580701 0.15086113 1.8950001
-0.41109487 0.15094073 1.8960001
-0.40637749 0.15102035 1.8970001
-0.40165496 0.15109995 1.8980001
-0.39692721 0.15117955 1.899
-0.39198783 0.15117955 1.899
-0.38725227 0.15125917 1.9000001
-0.38251156 0.15133879 1.9010001
-0.37756696 0.15133879 1.9010001
-0.37281841 0.15141839 1.9020001
-0.36787122 0.15141839 1.9020001
-0.36273324 0.15133879 1.9010001
-0.35778871 0.15133879 1.9010001
-0.35265851 0.15125917 1.9000001
-0.34808254 0.15141839 1.9020001
-0.34295499 0.15133879 1.9010001
-0.3380104 0.15133879 1.9010001
-0.33306581 0.15133879 1.9010001
-0.32794866 0.15125917 1.9000001
-0.32300666 0.15125917 1.9000001
-0.31823209 0.15133879 1.9010001
-0.31394675 0.15165722 1.9050001
-0.30899176 0.15165722 1.9050001
-0.30435601 0.15181644 1.9070001
-0.29955283 0.15189606 1.9080001
-0.29505321 0.15213488 1.9110001
-0.29023445 0.1522145 1.9120001
-0.28555962 0.15237372 1.914
-0.28072783 0.15245332 1.9150001
-0.27574688 0.15245332 1.9150001
-0.27076587 0.15245332 1.9150001
-0.26564607 0.15237372 1.914
-0.26039535 0.1522145 1.9120001
-0.25528857 0.15213488 1.9110001
-0.250056 0.15197566 1.909
-0.24483386 0.15181644 1.9070001
-0.2397479 0.15173684 1.9060001
-0.23454393 0.15157761 1.904
-0.2293504 0.15141839 1.9020001
-0.22428526 0.15133879 1.9010001
-0.21934068 0.15133879 1.9010001
-0.2143961 0.15133879 1.9010001
-0.20956171 0.15141839 1.9020001
-0.20472211 0.151498 1.9030001
-0.1999823 0.15165722 1.9050001
-0.19533445 0.15189606 1.9080001
-0.19057123 0.15205528 1.9100001
-0.18589476 0.1522941 1.9130001
-0.18120271 0.15253294 1.9160001
-0.17640306 0.15269215 1.9180001
-0.17168239 0.15293099 1.9210001
-0.1669461 0.15316983 1.9240001
-0.16211005 0.15332903 1.9260001
-0.15718202 0.15340865 1.927
-0.15232775 0.15356787 1.9290001
-0.14731036 0.15356787 1.9290001
-0.14229296 0.15356787 1.9290001
-0.13812952 0.15452319 1.9410001
-0.13294378 0.15436397 1.9390001
-0.12770249 0.15412514 1.9360001
-0.1216531 0.15285137 1.9200001
-0.11647683 0.15261254 1.9170001
-0.11125801 0.1522941 1.9130001
-0.10605999 0.15197566 1.909
-0.10093574 0.15173684 1.9060001
-0.095827095 0.151498 1.9030001
-0.090781815 0.15133879 1.9010001
-0.085792087 0.15125917 1.9000001
-0.080765009 0.15109995 1.8980001
-0.075988047 0.15141839 1.9020001
-0.070966177 0.15125917 1.9000001
-0.0079918988 0.10365234 1.302
-0.0046088863 0.10373195 1.3030001
-0.0012197347 0.10373195 1.3030001
0.0021694168 0.10373195 1.3030001
0.0055585685 0.10373195 1.3030001
0.0089477198 0.10373195 1.3030001
0.012336871 0.10373195 1.3030001
0.015738092 0.10381155 1.304
0.019159185 0.10397078 1.3060001
0.022607952 0.1042096 1.309
0.026052456 0.10436884 1.3110001
0.029529832 0.10460766 1.314
0.032972671 0.10468727 1.3150001
0.03725097 0.10715518 1.3460001
0.044112638 0.1159919 1.457
0.050401036 0.12204227 1.5330001
0.059071574 0.13255081 1.6650001
0.06709601 0.14027297 1.7620001
0.075380959 0.14751749 1.853
0.082494609 0.15173684 1.9060001
0.08809454 0.15285137 1.9200001
0.09333095 0.15324943 1.9250001
0.098593369 0.15364747 1.9300001
0.10382811 0.15396592 1.9340001
0.1089711 0.15412514 1.9360001
0.11388893 0.15396592 1.9340001
0.11891934 0.15396592 1.9340001
0.12382155 0.15380669 1.932
0.12878008 0.15372708 1.9310001
0.1335948 0.15348825 1.9280001
0.13839391 0.15324943 1.9250001
0.14325193 0.15309021 1.9230001
0.14809954 0.15293099 1.9210001
0.15285704 0.15269215 1.9180001
0.15776353 0.15261254 1.9170001
0.16266483 0.15253294 1.9160001
0.16756091 0.15245332 1.9150001
0.17245178 0.15237372 1.914
0.17733747 0.1522941 1.9130001
0.18231326 0.1522941 1.9130001
0.18728904 0.1522941 1.9130001
0.19246583 0.15245332 1.9150001
0.19754994 0.15253294 1.9160001
0.20274493 0.15269215 1.9180001
0.20805864 0.15293099 1.9210001
0.21327704 0.15309021 1.9230001
0.21873288 0.15340865 1.927
0.22397731 0.15356787 1.9290001
0.22923212 0.15372708 1.9310001
0.23437603 0.15380669 1.932
0.23940124 0.15380669 1.932
0.24442644 0.15380669 1.932
0.24919343 0.15364747 1.9300001
0.25394997 0.15348825 1.9280001
0.25856182 0.15324943 1.9250001
0.26315808 0.15301059 1.9220001
0.2677387 0.15277177 1.9190001
0.27244586 0.15261254 1.9170001
0.27728733 0.15253294 1.9160001
0.28227091 0.15253294 1.9160001
0.28725451 0.15253294 1.9160001
0.29239058 0.15261254 1.9170001
0.29768705 0.15277177 1.9190001
0.30315164 0.15301059 1.9220001
0.30847147 0.15316983 1.9240001
0.31380174 0.15332903 1.9260001
0.31897685 0.15340865 1.927
0.32398903 0.15340865 1.927
0.32883051 0.15332903 1.9260001
0.33349347 0.15316983 1.9240001
0.33797005 0.15293099 1.9210001
0.34260958 0.15277177 1.9190001
0.34144229 0.15006502 1.8850001
0.3470802 0.15038346 1.8890001
0.34565809 0.14767672 1.8550001
0.33801296 0.14242245 1.789
0.33040762 0.1373274 1.725
0.32364178 0.1309586 1.6450001
0.31934872 0.12753537 1.6020001
0.31664947 0.12482862 1.5680001
0.31090969 0.12100734 1.5200001
0.31320608 0.12037046 1.5120001
0.31252441 0.11861904 1.4900001
0.31385174 0.11766371 1.478
0.31490174 0.11662878 1.465
0.3171894 0.11607151 1.4580001
0.31789958 0.11495697 1.4440001
0.31920519 0.11408126 1.4330001
0.32135502 0.11352399 1.4260001
0.32369635 0.11304633 1.4200001
0.32623705 0.11264828 1.4150001
0.32898486 0.11232983 1.411
0.33194768 0.11209101 1.4080001
0.33513319 0.11193179 1.406
0.33879024 0.11193179 1.406
0.34244731 0.11193179 1.406
0.34635055 0.1120114 1.4070001
0.35050771 0.11217061 1.409
0.35467532 0.11232983 1.411
0.35910726 0.11256867 1.414
0.3632983 0.11272788 1.416
0.36749971 0.11288711 1.4180001
0.37144971 0.11296672 1.419
0.37566936 0.11312594 1.4210001
0.37963238 0.11320554 1.4220001
0.38360062 0.11328516 1.4230001
0.38675755 0.11312594 1.4210001
0.54044902 0.14950776 1.8780001
0.55433553 0.15197566 1.909
0.56691843 0.15404552 1.9350001
0.57313377 0.15436397 1.9390001
0.57907176 0.1546028 1.9420002
0.58502531 0.15484162 1.9450001
0.59099442 0.15508045 1.9480001
0.59697926 0.15531929 1.9510001
0.60267103 0.15547851 1.9530001
0.60868442 0.15571734 1.9560001
0.61439967 0.15587656 1.9580001
0.61664498 0.15516007 1.9490001
0.62235236 0.15531929 1.9510001
0.62807018 0.15547851 1.9530001
0.63379836 0.15563773 1.955
0.63953704 0.15579695 1.9570001
0.64495665 0.15587656 1.9580001
0.65004945 0.15587656 1.9580001
0.65848827 0.15667266 1.9680001
0.66293269 0.15651344 1.9660001
0.66736674 0.15635422 1.9640001
0.67144799 0.15611538 1.9610001
0.67620355 0.15603578 1.96
0.68060642 0.15587656 1.9580001
0.68499887 0.15571734 1.9560001
0.68867528 0.15539891 1.9520001
0.69375253 0.15539891 1.9520001
0.69882977 0.15539891 1.9520001
0.7042675 0.15547851 1.9530001
0.7097106 0.15555812 1.9540001
0.71552461 0.15571734 1.9560001
0.72024381 0.15563773 1.955
0.7256999 0.15571734 1.9560001
0.73190838 0.15595616 1.9590001
0.73737997 0.15603578 1.96
0.74323571 0.156195 1.9620001
0.74872035 0.1562746 1.9630001
0.75536221 0.15659305 1.9670001
0.7600919 0.15651344 1.9660001
0.76676238 0.15683189 1.9700001
0.77227819 0.15691149 1.9710001
0.77779937 0.15699109 1.9720001
0.78332555 0.15707071 1.973
0.78885704 0.15715031 1.9740001
0.79439378 0.15722993 1.9750001
0.79993558 0.15730953 1.9760001
0.80629748 0.15754837 1.9790001
0.81226498 0.15770759 1.9810001
0.81824291 0.15786681 1.983
0.82464647 0.15810564 1.9860001
0.83148348 0.15842408 1.9900001
0.83792084 0.15866292 1.9930001
0.84437376 0.15890174 1.9960001
0.85041672 0.15906097 1.9980001
0.85604185 0.15914057 1.9990001
0.86124128 0.15914057 1.9990001
0.86514044 0.15890174 1.9960001
0.86858803 0.1585833 1.9920001
0.87157607 0.15818526 1.9870001
0.87497932 0.15786681 1.983
0.87747419 0.15738915 1.9770001
0.87725914 0.15643384 1.9650002
0.88596249 0.15707071 1.973
0.88973945 0.15683189 1.9700001
0.89440924 0.15675227 1.9690001
0.89907378 0.15667266 1.9680001
0.90465212 0.15675227 1.9690001
0.90977353 0.15675227 1.9690001
0.91628891 0.15699109 1.9720001
0.92188543 0.15707071 1.973
0.92748713 0.15715031 1.9740001
0.93403894 0.15738915 1.9770001
0.9396562 0.15746875 1.978
0.94527876 0.15754837 1.9790001
0.95090646 0.15762798 1.9800001
0.95557362 0.15754837 1.9790001
0.96072108 0.15754837 1.9790001
0.96586853 0.15754837 1.9790001
0.97150666 0.15762798 1.9800001
0.97714996 0.15770759 1.9810001
0.97833568 0.15707071 1.973
0.98446453 0.15722993 1.9750001
0.99210691 0.15762798 1.9800001
0.99927157 0.15794642 1.9840001
1.0054445 0.15810564 1.9860001
1.0121368 0.15834446 1.9890001
1.0173103 0.15834446 1.9890001
-1.5121911 0.23619257 2.8730001
-1.506813 0.23652141 2.8770001
-1.5019357 0.23693247 2.8820002
-1.4965136 0.23726131 2.8860002
-1.4905549 0.23750794 2.8890002
-1.4856071 0.23791899 2.8940001
-1.4801228 0.23824786 2.8980002
-1.4756336 0.2387411 2.904
-1.4690914 0.23890553 2.9060001
-1.4630417 0.23915216 2.9090002
-1.4569763 0.23939881 2.9120002
-1.4508952 0.23964544 2.9150002
-1.4443034 0.23980984 2.9170001
-1.4381938 0.24005648 2.9200001
-1.4325585 0.24038532 2.924
-1.426415 0.24063195 2.927
-1.4207408 0.24096082 2.9310002
-1.4145635 0.24120745 2.9340003
-1.4088502 0.24153629 2.9380002
-1.4021621 0.24170071 2.9400001
-1.3935665 0.24153629 2.9380002
-1.4038501 0.2446603 2.9760001
-1.3956403 0.24457809 2.9750001
-1.3893018 0.24482474 2.9780002
-1.3838754 0.24523579 2.983
-1.3945694 0.24852425 3.0230002
-1.3871652 0.24860644 3.0240002
-1.3934392 0.25115499 3.0550001
-1.3868536 0.2514016 3.0580001
-1.3816051 0.25189489 3.0640001
-1.3740839 0.25197709 3.0650001
-1.3799288 0.25452566 3.0960002
-1.3732054 0.25477228 3.0990002
-1.3660257 0.2549367 3.1010001
-1.3597116 0.25526556 3.1050003
-1.3503295 0.25501892 3.1020002
-1.3418282 0.2549367 3.1010001
-1.3333324 0.2548545 3.1000001
-1.3103064 0.25197709 3.0650001
-1.2925614 0.25008625 3.0420001
-1.2846491 0.25008625 3.0420001
-1.2746383 0.2496752 3.0370002
-1.2538087 0.24712664 3.006
-1.2493061 0.24778433 3.0140002
-1.2266381 0.24482474 2.9780002
-1.2205294 0.24515358 2.9820001
-1.2046392 0.24350935 2.9620001
-1.1977432 0.24367379 2.9640002
-1.1844127 0.24252282 2.95
-1.175144 0.24219397 2.9460001
-1.1647073 0.2416185 2.9390001
-1.1519449 0.24054976 2.9260001
-1.1310371 0.23775458 2.8920002
-1.1231264 0.23767236 2.891
-1.1148351 0.23750794 2.8890002
-1.0923724 0.23430172 2.8500001
-1.0834367 0.23397286 2.8460002
-1.0752779 0.23380844 2.8440001
-1.0562406 0.2312599 2.8130002
-1.041839 0.22969788 2.7940001
-1.0319798 0.22912242 2.7870002
-1.0214216 0.22838251 2.7780001
-1.0127355 0.22805366 2.7740002
-1.0040704 0.22772482 2.7700002
-0.99578583 0.22747819 2.7670002
-0.98787415 0.22731376 2.7650001
-0.98068231 0.22731376 2.7650001
-0.97384256 0.22739597 2.766
-0.96699756 0.22747819 2.7670002
-0.96049422 0.2276426 2.7690001
-0.95363629 0.22772482 2.7700002
-0.94745636 0.22797146 2.7730002
-0.94092184 0.22813587 2.7750001
-0.93437696 0.2283003 2.7770002
-0.92782152 0.22846471 2.779
-0.92125583 0.22862914 2.7810001
-0.91369373 0.22854693 2.7800002
-0.90678883 0.22862914 2.7810001
-0.89955533 0.22862914 2.7810001
-0.89264274 0.22871135 2.7820001
-0.8857249 0.22879358 2.7830002
-0.88290548 0.22994453 2.7970002
-0.87907404 0.23084883 2.8080001
-0.87145984 0.23076664 2.8070002
-0.86415875 0.23076664 2.8070002
-0.86021549 0.23167095 2.8180001
-0.8531884 0.23175317 2.8190002
-0.84675622 0.23199978 2.822
-0.84030849 0.23224643 2.825
-0.83443481 0.23265749 2.8300002
-0.8282429 0.23298633 2.8340001
-0.82231987 0.23339739 2.8390002
-0.8155095 0.2335618 2.8410001
-0.80812001 0.2335618 2.8410001
-0.80073047 0.2335618 2.8410001
-0.79334098 0.2335618 2.8410001
-0.76852268 0.22838251 2.7780001
-0.51199055 0.15965401 1.9420002
-0.49989122 0.1574343 1.9150001
-0.49335963 0.15694104 1.909
-0.48762676 0.15669441 1.9060001
-0.48216265 0.15652998 1.904
-0.4764584 0.15628335 1.9010001
-0.47076973 0.15603672 1.8980001
-0.4653421 0.1558723 1.8960001
-0.45992485 0.15570787 1.8940001
-0.45451802 0.15554345 1.8920001
-0.44959688 0.15554345 1.8920001
-0.44420564 0.15537903 1.8900001
-0.44068429 0.1558723 1.8960001
-0.43644217 0.15611893 1.899
-0.43195727 0.15628335 1.9010001
-0.42746195 0.15644777 1.9030001
-0.42162406 0.15611893 1.899
-0.41690412 0.15620114 1.9000001
-0.41239581 0.15636556 1.9020001
-0.40744862 0.15636556 1.9020001
-0.40271306 0.15644777 1.9030001
-0.39776331 0.15644777 1.9030001
-0.39281353 0.15644777 1.9030001
-0.38765991 0.15636556 1.9020001
-0.38291398 0.15644777 1.9030001
-0.3779642 0.15644777 1.9030001
-0.37301445 0.15644777 1.9030001
-0.36806467 0.15644777 1.9030001
-0.36311486 0.15644777 1.9030001
-0.35797691 0.15636556 1.9020001
-0.35302973 0.15636556 1.9020001
-0.34826556 0.15644777 1.9030001
-0.3434962 0.15652998 1.904
-0.3385438 0.15652998 1.904
-0.33359143 0.15652998 1.904
-0.32881168 0.15661219 1.9050001
-0.32385668 0.15661219 1.9050001
-0.31890172 0.15661219 1.9050001
-0.31411156 0.15669441 1.9060001
-0.30947837 0.15685883 1.9080001
-0.30467519 0.15694104 1.909
-0.2998668 0.15702325 1.9100001
-0.29520762 0.15718767 1.9120001
-0.29038626 0.15726988 1.9130001
-0.28541046 0.15726988 1.9130001
-0.28058124 0.15735209 1.914
-0.27560288 0.15735209 1.914
-0.27048311 0.15726988 1.9130001
-0.26536849 0.15718767 1.9120001
-0.26012295 0.15702325 1.9100001
-0.25488779 0.15685883 1.9080001
-0.249925 0.15685883 1.9080001
-0.24470548 0.15669441 1.9060001
-0.2396221 0.15661219 1.9050001
-0.23454393 0.15652998 1.904
-0.2293504 0.15636556 1.9020001
-0.22440323 0.15636556 1.9020001
-0.21945605 0.15636556 1.9020001
-0.21450888 0.15636556 1.9020001
-0.20978206 0.15652998 1.904
-0.20493726 0.15661219 1.9050001
-0.20019224 0.15677662 1.9070001
-0.19553921 0.15702325 1.9100001
-0.19077078 0.15718767 1.9120001
-0.18608911 0.1574343 1.9150001
-0.18139185 0.15768094 1.9180001
-0.17667899 0.15792757 1.9210001
-0.1719505 0.15817422 1.9240001
-0.16711964 0.15833864 1.9260001
-0.16236256 0.15858527 1.9290001
-0.15742673 0.15866747 1.9300001
-0.15256464 0.15883189 1.932
-0.14753945 0.15883189 1.932
-0.14339943 0.15981843 1.9440001
-0.13827184 0.15973622 1.9430001
-0.1330809 0.1595718 1.9410001
-0.12783441 0.15932517 1.9380001
-0.12177982 0.15800978 1.9220001
-0.11659835 0.15776315 1.9190001
-0.11143249 0.15751652 1.9160001
-0.10622666 0.15718767 1.9120001
-0.10114756 0.15702325 1.9100001
-0.096078873 0.15685883 1.9080001
-0.091020584 0.15669441 1.9060001
-0.086017855 0.15661219 1.9050001
-0.081062883 0.15661219 1.9050001
-0.076187804 0.15677662 1.9070001
-0.071152933 0.15661219 1.9050001
-0.011378449 0.10703889 1.302
-0.0079980372 0.1071211 1.3030001
-0.0046088863 0.1071211 1.3030001
-0.0012197347 0.1071211 1.3030001
0.0021694168 0.1071211 1.3030001
0.0055585685 0.1071211 1.3030001
0.0089477198 0.1071211 1.3030001
0.012346338 0.1072033 1.304
0.01576223 0.10736773 1.3060001
0.019188525 0.10753215 1.3080001
0.022625225 0.10769658 1.3100001
0.0260922 0.10794321 1.3130001
0.029574782 0.10818984 1.3160001
0.033047896 0.10835426 1.3180001
0.037029568 0.10999849 1.3380001
0.043809876 0.11895949 1.447
0.075014837 0.15159732 1.8440001
0.082537889 0.15677662 1.9070001
0.088186301 0.15800978 1.9220001
0.0934764 0.15850306 1.9280001
0.098695539 0.15883189 1.932
0.10398916 0.15924294 1.937
0.10913996 0.15940738 1.9390001
0.11406558 0.15924294 1.937
0.11904231 0.15916075 1.9360001
0.12401382 0.15907852 1.9350001
0.12918022 0.15924294 1.937
0.13401055 0.15899631 1.9340001
0.13875338 0.15866747 1.9300001
0.14354989 0.15842083 1.927
0.14833082 0.15817422 1.9240001
0.15309612 0.15792757 1.9210001
0.15801041 0.15784536 1.9200001
0.16283461 0.15768094 1.9180001
0.1676484 0.15751652 1.9160001
0.17254189 0.1574343 1.9150001
0.17752287 0.1574343 1.9150001
0.18240856 0.15735209 1.914
0.18748485 0.1574343 1.9150001
0.19256634 0.15751652 1.9160001
0.19775614 0.15768094 1.9180001
0.20295635 0.15784536 1.9200001
0.20827526 0.15809199 1.9230001
0.21360977 0.15833864 1.9260001
0.21907341 0.15866747 1.9300001
0.22432563 0.15883189 1.932
0.22958826 0.15899631 1.9340001
0.23473997 0.15907852 1.9350001
0.23977299 0.15907852 1.9350001
0.24467948 0.15899631 1.9340001
0.24958077 0.1589141 1.9330001
0.25421342 0.15866747 1.9300001
0.25896478 0.15850306 1.9280001
0.26356885 0.15825641 1.9250001
0.26815724 0.15800978 1.9220001
0.27287221 0.15784536 1.9200001
0.27757677 0.15768094 1.9180001
0.28256556 0.15768094 1.9180001
0.28770429 0.15776315 1.9190001
0.2930007 0.15792757 1.9210001
0.29815242 0.15800978 1.9220001
0.30362481 0.15825641 1.9250001
0.30911279 0.15850306 1.9280001
0.31445345 0.15866747 1.9300001
0.319639 0.15874968 1.9310001
0.32466158 0.15874968 1.9310001
0.32951343 0.15866747 1.9300001
0.33418679 0.15850306 1.9280001
0.33867377 0.15825641 1.9250001
0.34332371 0.15809199 1.9230001
0.34705752 0.15751652 1.9160001
0.34781516 0.15562567 1.8930001
0.34528539 0.15233721 1.853
0.33744615 0.14682907 1.7860001
0.33251455 0.14271851 1.7360001
0.31257102 0.12890704 1.5680001
0.30857167 0.12561861 1.5280001
0.30988696 0.12454986 1.5150001
0.31217036 0.12389217 1.5070001
0.31252441 0.12249459 1.4900001
0.31279001 0.12109698 1.473
0.31490174 0.1204393 1.465
0.31675428 0.1196994 1.4560001
0.31811973 0.11879507 1.4450001
0.31942794 0.11789075 1.434
0.32158035 0.11731528 1.427
0.32415226 0.11690422 1.4220001
0.32669815 0.11649317 1.4170001
0.3294512 0.11616433 1.4130001
0.33241919 0.11591769 1.4100001
0.3358483 0.11583547 1.409
0.33951312 0.11583547 1.409
0.343178 0.11583547 1.409
0.34733519 0.11599989 1.411
0.35125402 0.11608211 1.4120001
0.35568079 0.11632875 1.4150001
0.36012316 0.11657538 1.4180001
0.36432457 0.1167398 1.4200001
0.36853635 0.11690422 1.4220001
0.37275854 0.11706864 1.424
0.37699121 0.11723307 1.4260001
0.38096723 0.11731528 1.427
0.3846789 0.11731528 1.427
0.38730189 0.11698643 1.4230001
0.52159053 0.15036415 1.8290001
0.55052125 0.15726988 1.9130001
0.55578744 0.15735209 1.914
0.56721139 0.15916075 1.9360001
0.57342935 0.15948959 1.9400001
0.5793699 0.15973622 1.9430001
0.58532608 0.15998285 1.9460001
0.59129786 0.16022949 1.9490001
0.59728527 0.16047612 1.9520001
0.60328823 0.16072275 1.955
0.60899562 0.16088718 1.9570001
0.61502725 0.1611338 1.96
0.61727774 0.16039391 1.9510001
0.62267137 0.16047612 1.9520001
0.6283918 0.16064054 1.9540001
0.63412261 0.16080496 1.9560001
0.63986379 0.16096938 1.9580001
0.64528608 0.1610516 1.9590001
0.65071344 0.1611338 1.96
0.65547687 0.1610516 1.9590001
0.66023511 0.16096938 1.9580001
0.66872597 0.16179149 1.9680001
0.67315996 0.16162707 1.9660001
0.6765486 0.16121602 1.9610001
0.68095404 0.1610516 1.9590001
0.68569928 0.16096938 1.9580001
0.69008648 0.16080496 1.9560001
0.69517416 0.16080496 1.9560001
0.70026177 0.16080496 1.9560001
0.70570999 0.16088718 1.9570001
0.71152669 0.1610516 1.9590001
0.71589047 0.16088718 1.9570001
0.72171748 0.1610516 1.9590001
0.72718394 0.1611338 1.96
0.73340279 0.16138044 1.9630001
0.73850864 0.16138044 1.9630001
0.74437219 0.16154487 1.9650002
0.74986458 0.16162707 1.9660001
0.75574625 0.16179149 1.9680001
0.76125175 0.16187371 1.9690001
0.76793003 0.16220255 1.973
0.77306187 0.16220255 1.973
0.77858818 0.16228476 1.9740001
0.78451663 0.16244918 1.9760001
0.79005593 0.16253139 1.9770001
0.79560041 0.1626136 1.978
0.80155492 0.16277803 1.9800001
0.80751979 0.16294245 1.9820001
0.8134951 0.16310687 1.9840001
0.81948084 0.16327129 1.9860001
0.82630742 0.16360015 1.9900001
0.83315474 0.16392899 1.9940001
0.83960259 0.16417561 1.9970001
0.84564286 0.16434003 1.9990001
0.85169363 0.16450447 2.0010002
0.85689837 0.16450447 2.0010002
0.8616721 0.16442224 2
0.86557388 0.16417561 1.9970001
0.86858803 0.16376457 1.9920001
0.87157607 0.1633535 1.9870001
0.87497932 0.16302466 1.983
0.87924957 0.16286024 1.9810001
0.88127708 0.16228476 1.9740001
0.88371724 0.16179149 1.9680001
0.88748121 0.16154487 1.9650002
0.89259225 0.16154487 1.9650002
0.89724642 0.16146265 1.9640001
0.90327376 0.16162707 1.9660001
0.90884948 0.16170929 1.9670001
0.91535962 0.16195592 1.9700001
0.92141819 0.16212034 1.9720001
0.92748713 0.16228476 1.9740001
0.93403894 0.16253139 1.9770001
0.94013125 0.16269583 1.9790001
0.94575644 0.16277803 1.9800001
0.95186698 0.16294245 1.9820001
0.95702219 0.16294245 1.9820001
0.96217752 0.16294245 1.9820001
0.96782076 0.16302466 1.983
0.97346926 0.16310687 1.9840001
0.97961628 0.16327129 1.9860001
0.9803192 0.16253139 1.9770001
0.98695683 0.16277803 1.9800001
0.99461222 0.16318908 1.9850001
1.0012863 0.16343571 1.988
1.0079758 0.16368234 1.9910001
1.0141723 0.16384678 1.9930001
1.0198675 0.16392899 1.9940001
-1.5058749 0.24264759 2.8610001
-1.4994806 0.24281722 2.8630002
-1.4941185 0.24315646 2.8670001
-1.4944395 0.24442865 2.8820002
-1.4822998 0.24366534 2.8730001
-1.4835539 0.24510714 2.8900001
-1.4780798 0.24544638 2.8940001
-1.4751256 0.2462097 2.9030001
-1.4690914 0.24646413 2.9060001
-1.4635445 0.24680339 2.9100001
-1.4574765 0.24705783 2.9130001
-1.4464155 0.24646413 2.9060001
-1.4413327 0.24688821 2.9110003
-1.4357312 0.24722746 2.9150002
-1.429619 0.2474819 2.9180002
-1.4234911 0.24773633 2.9210002
-1.4231644 0.24900851 2.9360001
-1.4174563 0.24934775 2.9400001
-1.4112477 0.24960218 2.9430001
-1.4050237 0.24985662 2.9460001
-1.394515 0.24934775 2.9400001
-1.4029067 0.25223136 2.9740002
-1.3951712 0.25223136 2.9740002
-1.4070296 0.25579348 3.016
-1.4005766 0.2560479 3.0190001
-1.3945694 0.25638717 3.0230002
-1.3876239 0.25655678 3.0250001
-1.3934392 0.25910115 3.0550001
-1.3864001 0.25927079 3.0570002
-1.3969363 0.26274806 3.098
-1.3888782 0.26274806 3.098
-1.3808203 0.26274806 3.098
-1.3740916 0.26300251 3.1010001
-1.3669068 0.26317215 3.1030002
-1.3610253 0.26359618 3.108
-1.3503295 0.26308733 3.1020002
-1.3418282 0.26300251 3.1010001
-1.3333324 0.2629177 3.1000001
-1.3098789 0.25986445 3.0640001
-1.290437 0.25757453 3.0370002
-1.2833822 0.25774413 3.039
-1.2633064 0.25528461 3.0100002
-1.2575626 0.25570866 3.0150001
-1.236042 0.25290987 2.9820001
-1.2278738 0.25282505 2.9810002
-1.2094784 0.25061995 2.9550002
-1.2001655 0.25028068 2.9510002
-1.1937022 0.25053513 2.9540002
-1.1816022 0.24960218 2.9430001
-1.1711551 0.24900851 2.9360001
-1.1639147 0.24909331 2.937
-1.1523385 0.24824518 2.927
-1.1294727 0.24493752 2.8880002
-1.1227379 0.24510714 2.8900001
-1.1140633 0.24485271 2.8870001
-1.0919892 0.24162985 2.8490002
-1.083056 0.24129058 2.845
-1.0745219 0.24103618 2.8420002
-1.0551142 0.23832218 2.8100002
-1.0433306 0.23730442 2.7980001
-1.0327203 0.23654111 2.789
-1.0206861 0.23543856 2.776
-1.0123705 0.23518413 2.7730002
-1.0037079 0.23484486 2.7690001
-0.99542588 0.23459043 2.766
-0.98751694 0.23442082 2.7640002
-0.98032767 0.23442082 2.7640002
-0.97313845 0.23442082 2.7640002
-0.96629858 0.23450562 2.7650001
-0.95980048 0.23467526 2.7670002
-0.95294774 0.23476006 2.7680001
-0.94608963 0.23484486 2.7690001
-0.93922651 0.2349297 2.7700002
-0.93269455 0.2350993 2.7720001
-0.92648602 0.23535374 2.7750001
-0.91993076 0.23552337 2.7770002
-0.91303635 0.23560818 2.7780001
-0.90613663 0.23569299 2.779
-0.89890838 0.23569299 2.779
-0.89200103 0.23577781 2.7800002
-0.88508832 0.23586261 2.7810001
-0.87596089 0.23535374 2.7750001
-0.86905611 0.23543856 2.776
-0.86276692 0.23569299 2.779
-0.85707802 0.23611706 2.7840002
-0.85105777 0.2364563 2.7880001
-0.84864855 0.23781329 2.8040001
-0.84585613 0.2390855 2.8190002
-0.83971363 0.23942474 2.8230002
-0.83384508 0.23984879 2.8280001
-0.82765836 0.24018803 2.832
-0.82231987 0.24078174 2.8390002
-0.8155095 0.24095134 2.8410001
-0.80812001 0.24095134 2.8410001
-0.80073047 0.24095134 2.8410001
-0.79334098 0.24095134 2.8410001
-0.76935261 0.23586261 2.7810001
-0.71799791 0.22220786 2.6200001
-0.64495093 0.20151369 2.3760002
-0.52174526 0.16784327 1.9790001
-0.50067437 0.16266972 1.9180001
-0.49439338 0.16224566 1.9130001
-0.48865011 0.16199122 1.9100001
-0.48317561 0.1618216 1.9080001
-0.47771159 0.16165198 1.9060001
-0.47225791 0.16148235 1.904
-0.4668147 0.16131273 1.9020001
-0.46138185 0.16114311 1.9000001
-0.45571917 0.16088867 1.8970001
-0.45078501 0.16088867 1.8970001
-0.44608587 0.16097349 1.8980001
-0.44207883 0.16131273 1.9020001
-0.43782115 0.16156717 1.9050001
-0.4330934 0.16165198 1.9060001
-0.42836043 0.16173679 1.9070001
-0.42362228 0.1618216 1.9080001
-0.41887891 0.16190641 1.909
-0.41369674 0.1618216 1.9080001
-0.40851972 0.16173679 1.9070001
-0.40355954 0.16173679 1.9070001
-0.39859936 0.16173679 1.9070001
-0.39343277 0.16165198 1.9060001
-0.38827136 0.16156717 1.9050001
-0.3833164 0.16156717 1.9050001
-0.3781628 0.16148235 1.904
-0.37321043 0.16148235 1.904
-0.36825806 0.16148235 1.904
-0.36330566 0.16148235 1.904
-0.35816512 0.16139755 1.9030001
-0.35340092 0.16148235 1.904
-0.34844854 0.16148235 1.904
-0.3436766 0.16156717 1.9050001
-0.33872163 0.16156717 1.9050001
-0.33394185 0.16165198 1.9060001
-0.32898429 0.16165198 1.9060001
-0.3241967 0.16173679 1.9070001
-0.31940392 0.1618216 1.9080001
-0.31444114 0.1618216 1.9080001
-0.30964056 0.16190641 1.909
-0.30483481 0.16199122 1.9100001
-0.30002382 0.16207604 1.9110001
-0.29520762 0.16216084 1.9120001
-0.29038626 0.16224566 1.9130001
-0.28555962 0.16233048 1.914
-0.28043467 0.16224566 1.9130001
-0.2753149 0.16216084 1.9120001
-0.27020031 0.16207604 1.9110001
-0.26509091 0.16199122 1.9100001
-0.25998676 0.16190641 1.909
-0.25475422 0.16173679 1.9070001
-0.24966304 0.16165198 1.9060001
-0.24470548 0.16165198 1.9060001
-0.2396221 0.16156717 1.9050001
-0.23454393 0.16148235 1.904
-0.22947098 0.16139755 1.9030001
-0.22452122 0.16139755 1.9030001
-0.21968681 0.16148235 1.904
-0.21484722 0.16156717 1.9050001
-0.21000244 0.16165198 1.9060001
-0.20526001 0.1618216 1.9080001
-0.2004022 0.16190641 1.909
-0.19574396 0.16216084 1.9120001
-0.19107011 0.16241528 1.9150001
-0.18628345 0.16258492 1.9170001
-0.18167557 0.16292417 1.9210001
-0.17695491 0.16317861 1.9240001
-0.17221861 0.16343303 1.927
-0.16737996 0.16360267 1.9290001
-0.1625309 0.16377228 1.9310001
-0.15767144 0.1639419 1.9330001
-0.15280154 0.16411152 1.9350001
-0.14769219 0.16402672 1.9340001
-0.14266178 0.16402672 1.9340001
-0.13841416 0.16495965 1.9450001
-0.13321804 0.16479003 1.9430001
-0.12710883 0.16343303 1.927
-0.12190655 0.16317861 1.9240001
-0.11665911 0.16283935 1.9200001
-0.1115488 0.16266972 1.9180001
-0.10633778 0.16233048 1.914
-0.10130644 0.16224566 1.9130001
-0.096229941 0.16207604 1.9110001
-0.091211602 0.16199122 1.9100001
-0.086288773 0.16207604 1.9110001
-0.0813182 0.16207604 1.9110001
-0.076387562 0.16216084 1.9120001
-0.071451738 0.16224566 1.9130001
-0.066684447 0.16275454 1.9190001
-0.01813761 0.11034063 1.3010001
-0.014776341 0.11051024 1.3030001
-0.011378449 0.11042544 1.302
-0.0079980372 0.11051024 1.3030001
-0.0046088863 0.11051024 1.3030001
-0.0012197347 0.11051024 1.3030001
0.0021694168 0.11051024 1.3030001
0.0055585685 0.11051024 1.3030001
0.0089477198 0.11051024 1.3030001
0.012355806 0.11067987 1.3050001
0.015774298 0.11084949 1.307
0.019203193 0.11101911 1.309
0.022659766 0.11127355 1.312
0.026131945 0.11152799 1.3150001
0.029642198 0.11186723 1.319
0.033123117 0.11203687 1.3210001
0.036725137 0.11254574 1.327
0.043022692 0.12051809 1.4210001
0.074933477 0.156224 1.8420001
0.082408041 0.16148235 1.904
0.088323951 0.16326341 1.9250001
0.093573362 0.16368747 1.9300001
0.098797709 0.16402672 1.9340001
0.10415022 0.16453558 1.9400001
0.1093651 0.16479003 1.9430001
0.11471335 0.16521409 1.9480001
0.11978018 0.16521409 1.9480001
0.1247829 0.16512929 1.9470001
0.12944698 0.1646204 1.9410001
0.13428771 0.16436596 1.9380001
0.13904096 0.16402672 1.9340001
0.14377338 0.16368747 1.9300001
0.1485621 0.16343303 1.927
0.15333521 0.16317861 1.9240001
0.15809271 0.16292417 1.9210001
0.16291952 0.16275454 1.9190001
0.1678234 0.16266972 1.9180001
0.17272209 0.16258492 1.9170001
0.17770827 0.16258492 1.9170001
0.18259917 0.1625001 1.9160001
0.18768065 0.16258492 1.9170001
0.19276735 0.16266972 1.9180001
0.19796236 0.16283935 1.9200001
0.20316775 0.16300897 1.9220001
0.20849186 0.16326341 1.9250001
0.21383159 0.16351785 1.9280001
0.21930043 0.16385709 1.932
0.22455786 0.16402672 1.9340001
0.22982568 0.16419634 1.9360001
0.23498259 0.16428114 1.937
0.24002081 0.16428114 1.937
0.24505901 0.16428114 1.937
0.24983901 0.16411152 1.9350001
0.25460857 0.1639419 1.9330001
0.25923342 0.16368747 1.9300001
0.26397961 0.16351785 1.9280001
0.26857582 0.16326341 1.9250001
0.27315646 0.16300897 1.9220001
0.27801096 0.16292417 1.9210001
0.28300753 0.16292417 1.9210001
0.28815404 0.16300897 1.9220001
0.29345828 0.16317861 1.9240001
0.29877293 0.16334823 1.9260001
0.30409798 0.16351785 1.9280001
0.30959377 0.16377228 1.9310001
0.31494224 0.1639419 1.9330001
0.32030112 0.16411152 1.9350001
0.3253341 0.16411152 1.9350001
0.33019638 0.16402672 1.9340001
0.33488011 0.16385709 1.932
0.33937752 0.16360267 1.9290001
0.34403783 0.16343303 1.927
0.34705752 0.1625001 1.9160001
0.34873384 0.16097349 1.8980001
0.34565809 0.15732656 1.8550001
0.33706826 0.15130489 1.784
0.3288753 0.14562248 1.7170001
0.31518185 0.13586909 1.6020001
0.31356773 0.13340953 1.5730001
0.30998528 0.13018666 1.5350001
0.30702329 0.12730305 1.501
0.31009889 0.12696381 1.4970001
0.31210491 0.1262005 1.488
0.31279001 0.12492831 1.473
0.31490174 0.12424982 1.465
0.31653672 0.12340169 1.455
0.31789958 0.12246876 1.4440001
0.31965071 0.12170545 1.4350001
0.32203105 0.12119658 1.429
0.32460815 0.12077251 1.424
0.32715926 0.12034845 1.419
0.33015063 0.12009402 1.416
0.33312646 0.11983959 1.4130001
0.33656338 0.11975477 1.4120001
0.34047699 0.11983959 1.4130001
0.34415227 0.11983959 1.4130001
0.34831986 0.12000921 1.4150001
0.35224906 0.12009402 1.416
0.35668623 0.12034845 1.419
0.361139 0.12060289 1.4220001
0.36560741 0.12085733 1.4250001
0.36983219 0.12102695 1.427
0.3740674 0.12119658 1.429
0.37831306 0.1213662 1.4310001
0.38230208 0.12145101 1.432
0.38602677 0.12145101 1.432
0.55052125 0.16224566 1.9130001
0.56014317 0.16360267 1.9290001
0.56721139 0.16419634 1.9360001
0.57342935 0.16453558 1.9400001
0.5793699 0.16479003 1.9430001
0.58622843 0.16529891 1.9490001
0.59129786 0.16529891 1.9490001
0.59728527 0.16555335 1.9520001
0.60328823 0.16580777 1.955
0.60961801 0.16614702 1.9590001
0.61502725 0.16623183 1.96
0.62107444 0.16648626 1.9630001
0.62299031 0.16563815 1.9530001
0.6283918 0.16572297 1.9540001
0.63412261 0.16589259 1.9560001
0.63986379 0.16606221 1.9580001
0.64561546 0.16623183 1.96
0.65104544 0.16631664 1.9610001
0.65614605 0.16631664 1.9610001
0.66124672 0.16631664 1.9610001
0.67008519 0.16724959 1.9720001
0.67452961 0.16707996 1.9700001
0.67827362 0.1667407 1.9660001
0.68408245 0.16691034 1.9680001
0.68710011 0.16640146 1.9620001
0.69220334 0.16640146 1.9620001
0.697662 0.16648626 1.9630001
0.70133579 0.16614702 1.9590001
0.70643121 0.16614702 1.9590001
0.71261632 0.16640146 1.9620001
0.7173537 0.16631664 1.9610001
0.72319114 0.16648626 1.9630001
0.72866803 0.16657108 1.9640001
0.73489732 0.16682552 1.9670001
0.7403897 0.16691034 1.9680001
0.7458874 0.16699515 1.9690001
0.75139028 0.16707996 1.9700001
0.75728232 0.16724959 1.9720001
0.76241159 0.16724959 1.9720001
0.76909769 0.16758883 1.9760001
0.77462918 0.16767365 1.9770001
0.78016585 0.16775845 1.978
0.78570771 0.16784327 1.9790001
0.79165441 0.16801289 1.9810001
0.79720932 0.1680977 1.9820001
0.80276936 0.16818251 1.983
0.80874211 0.16835214 1.9850001
0.81513518 0.16860656 1.988
0.82154399 0.168861 1.9910001
0.8279683 0.16911545 1.9940001
0.83482611 0.16945471 1.9980001
0.84128433 0.16970915 2.0010002
0.84733498 0.16987875 2.003
0.85297054 0.16996358 2.0040002
0.85818309 0.16996358 2.0040002
0.86253381 0.16979395 2.0020001
0.86644077 0.16953951 1.9990001
0.86858803 0.16894582 1.9920001
0.87069881 0.16835214 1.9850001
0.87409687 0.16801289 1.9810001
0.87836188 0.16784327 1.9790001
0.87993777 0.16716477 1.9710001
0.87787968 0.16580777 1.955
0.88522297 0.16623183 1.96
0.89032096 0.16623183 1.96
0.895419 0.16623183 1.96
0.90143603 0.16640146 1.9620001
0.90746331 0.16657108 1.9640001
0.9139657 0.16682552 1.9670001
0.92048371 0.16707996 1.9700001
0.92654747 0.16724959 1.9720001
0.93356645 0.16758883 1.9760001
0.9396562 0.16775845 1.978
0.94575644 0.16792808 1.9800001
0.95234716 0.16818251 1.983
0.9579879 0.16826732 1.9840001
0.96363389 0.16835214 1.9850001
0.96928495 0.16843694 1.9860001
0.97543186 0.16860656 1.988
0.98158938 0.1687762 1.9900001
0.98230261 0.16801289 1.9810001
0.98944914 0.16835214 1.9850001
0.99661648 0.16869138 1.9890001
1.0033009 0.16894582 1.9920001
1.0100009 0.16920026 1.9950001
1.0167166 0.16945471 1.9980001
1.0224249 0.16953951 1.9990001
-1.5064013 0.25017661 2.8620002
-1.5000044 0.2503514 2.8640001
-1.4941185 0.25061366 2.8670001
-1.488217 0.25087589 2.8700001
-1.4828157 0.25122553 2.8740001
-1.4779072 0.25166261 2.8790002
-1.4724617 0.25201225 2.8830001
-1.4690279 0.25271156 2.891
-1.464036 0.25314865 2.8960001
-1.4585152 0.25349829 2.9000001
-1.4529735 0.25384793 2.904
-1.4484065 0.25437242 2.9100001
-1.4433131 0.2548095 2.9150002
-1.4377013 0.25515914 2.9190001
-1.4320686 0.25550878 2.9230001
-1.4259276 0.25577104 2.9260001
-1.4255881 0.25708222 2.9410002
-1.4169742 0.2569074 2.9390001
-1.4112477 0.25725704 2.9430001
-1.4059776 0.25769413 2.9480002
-1.40163 0.25830603 2.9550002
-1.4019632 0.25979203 2.9720001
-1.3895417 0.2589179 2.9620001
-1.4079627 0.26381305 3.0180001
-1.4015044 0.26407528 3.0210001
-1.3950307 0.26433754 3.0240002
-1.3880827 0.26451236 3.0260003
-1.4048421 0.26923266 3.0800002
-1.4036337 0.27054384 3.095
-1.3978381 0.27098092 3.1000001
-1.3888782 0.2708061 3.098
-1.381266 0.27089351 3.0990002
-1.3745347 0.27115577 3.1020002
-1.3673472 0.27133057 3.1040001
-1.362777 0.27202991 3.1120002
-1.3498942 0.27106833 3.1010001
-1.3413956 0.27098092 3.1000001
-1.3333324 0.27098092 3.1000001
-1.309024 0.26765922 3.062
-1.290437 0.2654739 3.0370002
-1.2660677 0.26206478 2.9980001
-1.2633064 0.26311374 3.0100002
-1.2454667 0.26101583 2.9860001
-1.2339696 0.26022911 2.9770002
-1.2122216 0.25725704 2.9430001
-1.2086598 0.25813118 2.9530001
-1.1997588 0.25786895 2.95
-1.1896611 0.25734448 2.9440002
-1.1816022 0.25725704 2.9430001
-1.1711551 0.25664517 2.9360001
-1.1639147 0.25673258 2.937
-1.1507638 0.25550878 2.9230001
-1.1329925 0.25323606 2.8970001
-1.1223495 0.25253674 2.8890002
-1.1140633 0.25236192 2.8870001
-1.0923724 0.24912763 2.8500001
-1.0864822 0.24947728 2.8540001
-1.0733876 0.2481661 2.8390002
-1.0551142 0.2456311 2.8100002
-1.0444492 0.24484438 2.8010001
-1.0323501 0.24370801 2.7880001
-1.0203184 0.24257164 2.7750001
-1.0120053 0.24230939 2.7720001
-1.0033454 0.24195975 2.7680001
-0.98498946 0.23924994 2.7370002
-0.9778704 0.23924994 2.7370002
-0.96862334 0.23872547 2.7310002
-0.96081573 0.23855063 2.7290001
-0.95336801 0.23846322 2.7280002
-0.94870049 0.23907511 2.7350001
-0.94020963 0.23872547 2.7310002
-0.93413115 0.2389877 2.7340002
-0.93108875 0.24003665 2.7460001
-0.92327344 0.23986183 2.7440002
-0.91646999 0.23994924 2.7450001
-0.90999275 0.24012408 2.7470002
-0.90284771 0.24012408 2.7470002
-0.8957026 0.24012408 2.7470002
-0.88855755 0.24012408 2.7470002
-0.88109165 0.24003665 2.7460001
-0.87299436 0.23977441 2.743
-0.86522847 0.2395996 2.7410002
-0.85841209 0.239687 2.7420001
-0.85190094 0.23986183 2.7440002
-0.84568727 0.24012408 2.7470002
-0.84190005 0.24108562 2.7580001
-0.83593696 0.24143526 2.7620001
-0.82995313 0.24178492 2.766
-0.82335359 0.24195975 2.7680001
-0.82529432 0.24466954 2.799
-0.81859857 0.24484438 2.8010001
-0.81102347 0.24475698 2.8000002
-0.80574983 0.24536887 2.8070002
-0.7993021 0.2456311 2.8100002
-0.79283875 0.24589334 2.8130002
-0.78580129 0.24598075 2.8140001
-0.77018255 0.24335836 2.7840002
-0.71059871 0.22666244 2.5930002
-0.52174526 0.17299072 1.9790001
-0.50197953 0.16809559 1.9230001
-0.49516872 0.1674837 1.9160001
-0.48992929 0.16739628 1.9150001
-0.48418856 0.16713405 1.9120001
-0.47896478 0.16704664 1.9110001
-0.47374612 0.16695921 1.9100001
-0.46853271 0.1668718 1.909
-0.462596 0.16652215 1.9050001
-0.45764104 0.16652215 1.9050001
-0.45268607 0.16652215 1.9050001
-0.44796613 0.16660957 1.9060001
-0.44300857 0.16660957 1.9060001
-0.43897027 0.16695921 1.9100001
-0.43422952 0.16704664 1.9110001
-0.42948356 0.16713405 1.9120001
-0.42451036 0.16713405 1.9120001
-0.42019546 0.16739628 1.9150001
-0.41499767 0.16730887 1.914
-0.40980506 0.16722146 1.9130001
-0.40461764 0.16713405 1.9120001
-0.39943546 0.16704664 1.9110001
-0.394052 0.1668718 1.909
-0.388679 0.16669698 1.9070001
-0.38371885 0.16669698 1.9070001
-0.37856004 0.16660957 1.9060001
-0.37321043 0.16643474 1.904
-0.36845148 0.16652215 1.9050001
-0.36330566 0.16643474 1.904
-0.35835332 0.16643474 1.904
-0.35358655 0.16652215 1.9050001
-0.34863156 0.16652215 1.9050001
-0.34385702 0.16660957 1.9060001
-0.33889943 0.16660957 1.9060001
-0.33411703 0.16669698 1.9070001
-0.32932949 0.16678439 1.9080001
-0.32453668 0.1668718 1.909
-0.31973872 0.16695921 1.9100001
-0.31460595 0.1668718 1.909
-0.30980277 0.16695921 1.9100001
-0.3049944 0.16704664 1.9110001
-0.30018079 0.16713405 1.9120001
-0.29520762 0.16713405 1.9120001
-0.29038626 0.16722146 1.9130001
-0.28541046 0.16722146 1.9130001
-0.28028807 0.16713405 1.9120001
-0.27517092 0.16704664 1.9110001
-0.26991752 0.1668718 1.909
-0.26481333 0.16678439 1.9080001
-0.25971439 0.16669698 1.9070001
-0.25462061 0.16660957 1.9060001
-0.24953204 0.16652215 1.9050001
-0.24457708 0.16652215 1.9050001
-0.2397479 0.16660957 1.9060001
-0.23466712 0.16652215 1.9050001
-0.22971216 0.16652215 1.9050001
-0.22475718 0.16652215 1.9050001
-0.22003296 0.16669698 1.9070001
-0.21507278 0.16669698 1.9070001
-0.21033296 0.1668718 1.909
-0.20558274 0.16704664 1.9110001
-0.20071714 0.16713405 1.9120001
-0.19594871 0.16730887 1.914
-0.19126965 0.16757111 1.9170001
-0.18657498 0.16783334 1.9200001
-0.18186472 0.16809559 1.9230001
-0.17713885 0.16835783 1.9260001
-0.17239736 0.16862008 1.9290001
-0.16764025 0.16888231 1.932
-0.16269924 0.16896972 1.9330001
-0.15783456 0.16914454 1.9350001
-0.15295948 0.16931938 1.937
-0.14784491 0.16923197 1.9360001
-0.14280932 0.16923197 1.9360001
-0.13763137 0.16905715 1.9340001
-0.13246383 0.16888231 1.932
-0.12724075 0.16862008 1.9290001
-0.12196991 0.16827041 1.9250001
-0.11678063 0.16800818 1.9220001
-0.11166511 0.16783334 1.9200001
-0.10650446 0.16757111 1.9170001
-0.10146531 0.1674837 1.9160001
-0.09643136 0.16739628 1.9150001
-0.091450378 0.16739628 1.9150001
-0.086469389 0.16739628 1.9150001
-0.081488408 0.16739628 1.9150001
-0.076587319 0.16757111 1.9170001
-0.071526438 0.16739628 1.9150001
-0.066719197 0.16783334 1.9200001
-0.01478768 0.11398681 1.304
-0.011395928 0.11398681 1.304
-0.0080041755 0.11398681 1.304
-0.004612423 0.11398681 1.304
-0.0012206706 0.11398681 1.304
0.0021710817 0.11398681 1.304
0.005562834 0.11398681 1.304
0.0089614531 0.11407423 1.3050001
0.012365275 0.11416165 1.3060001
0.015786368 0.11433648 1.3080001
0.019217866 0.1145113 1.3100001
0.022677038 0.11477353 1.3130001
0.026171688 0.11512318 1.317
0.029664673 0.11538543 1.3200001
0.033173267 0.11564767 1.3230001
0.036697462 0.11590991 1.3260001
0.043143798 0.12456381 1.4250001
0.074892797 0.16092771 1.8410001
0.08258117 0.16678439 1.9080001
0.088323951 0.16827041 1.9250001
0.09362185 0.1687949 1.9310001
0.09884879 0.16914454 1.9350001
0.10420391 0.16966903 1.9410001
0.10953396 0.1701061 1.9460001
0.11483112 0.17045574 1.95
0.11990315 0.17045574 1.95
0.12491108 0.17036833 1.9490001
0.12971374 0.17001867 1.9450001
0.13456489 0.16975644 1.9420002
0.13932852 0.16940679 1.9380001
0.14399686 0.16896972 1.9330001
0.14879338 0.16870748 1.9300001
0.1535743 0.16844524 1.927
0.15825731 0.16809559 1.9230001
0.16308932 0.16792077 1.9210001
0.1679984 0.16783334 1.9200001
0.1729023 0.16774595 1.9190001
0.17789368 0.16774595 1.9190001
0.18278977 0.16765852 1.9180001
0.18787646 0.16774595 1.9190001
0.19306886 0.16792077 1.9210001
0.19816856 0.16800818 1.9220001
0.20337917 0.16818301 1.9240001
0.20870848 0.16844524 1.927
0.21405339 0.16870748 1.9300001
0.21941394 0.16896972 1.9330001
0.22479008 0.16923197 1.9360001
0.2300631 0.16940679 1.9380001
0.23522523 0.16949421 1.9390001
0.24026865 0.16949421 1.9390001
0.24518554 0.16940679 1.9380001
0.25009724 0.16931938 1.937
0.25487199 0.16914454 1.9350001
0.25950205 0.16888231 1.932
0.26411653 0.16862008 1.9290001
0.26885486 0.16844524 1.927
0.27358282 0.16827041 1.9250001
0.27844512 0.16818301 1.9240001
0.2834495 0.16818301 1.9240001
0.28860381 0.16827041 1.9250001
0.29391584 0.16844524 1.927
0.29939345 0.16870748 1.9300001
0.3047289 0.16888231 1.932
0.31023505 0.16914454 1.9350001
0.31559393 0.16931938 1.937
0.32096323 0.16949421 1.9390001
0.32617474 0.16958161 1.9400001
0.33105004 0.16949421 1.9390001
0.33574679 0.16931938 1.937
0.3402572 0.16905715 1.9340001
0.34475198 0.1687949 1.9310001
0.34723866 0.16757111 1.9170001
0.35112244 0.16704664 1.9110001
0.34584442 0.16223891 1.8560001
0.33612356 0.15550809 1.779
0.32868376 0.15000106 1.7160001
0.31296971 0.13723873 1.5700001
0.30937946 0.13391703 1.5320001
0.30620512 0.13085757 1.4970001
0.30927029 0.13050792 1.493
0.31126592 0.12972119 1.4840001
0.31279001 0.12875965 1.473
0.31490174 0.12806034 1.465
0.31610164 0.12701139 1.4530001
0.31811973 0.12631208 1.4450001
0.32009619 0.12561277 1.437
0.32248178 0.1250883 1.4310001
0.32529202 0.12473864 1.427
0.32785094 0.12430158 1.4220001
0.33085012 0.12403933 1.419
0.33406949 0.12386451 1.4170001
0.33751678 0.12377709 1.416
0.34144083 0.12386451 1.4170001
0.34537008 0.12395193 1.4180001
0.34955066 0.12412675 1.4200001
0.35349292 0.12421416 1.4210001
0.35769171 0.12438899 1.4230001
0.36215487 0.12465123 1.4260001
0.36663365 0.12491346 1.429
0.37086889 0.1250883 1.4310001
0.37537622 0.12535053 1.434
0.37963492 0.12552537 1.4360001
0.38363695 0.12561277 1.437
0.39033991 0.12657432 1.4480001
0.39383402 0.1264869 1.447
0.44768307 0.14108491 1.6140001
0.51702768 0.15848014 1.8130001
0.54246348 0.1647739 1.8850001
0.56188542 0.16914454 1.9350001
